# .PCD v0.7 - Point Cloud Data file format
VERSION 0.7
FIELDS x y z intensity
SIZE 4 4 4 4
TYPE F F F F
COUNT 1 1 1 1
WIDTH 1203
HEIGHT 1
VIEWPOINT 0 0 0 1 0 0 0
POINTS 1203
DATA ascii
-19.493679 -171.50189 1.5577377 440.57895
-18.60952 -171.5224 1.4894497 440.35483
-17.485025 -171.53128 1.479766 445.78262
-16.472742 -171.63765 1.5925392 425.20001
-15.425467 -171.72966 1.398664 424.66666
-14.646152 -171.56386 1.4853932 431
-13.552243 -171.68762 1.665902 419.66666
-12.685835 -171.53624 1.7552844 425.875
-11.415244 -171.51746 1.3649554 422.38889
-10.454353 -171.62346 1.5000871 426
-9.3154869 -171.59602 1.4762417 423.66666
-8.3977261 -171.47633 1.5172489 409.625
-7.6113968 -171.37047 1.5043496 419.66666
-6.3852921 -171.2514 1.4334841 415.5
-5.2746768 -171.52583 1.5630808 402.16666
-4.3332701 -171.33009 1.364792 405.71429
-3.5292723 -171.21941 1.34281 396.83334
-2.5432732 -171.21948 1.1807265 403.66666
-1.5065149 -171.26515 1.6005878 392.83334
-0.48363152 -171.31476 1.7906849 386.79999
0.18297398 -171.1326 1.5540825 399.5
2.5287097 -171.30701 1.4579324 384.66666
3.4234746 -171.54089 1.2825679 394.33334
4.875742 -171.41638 1.6688204 385
5.4801283 -171.42172 1.491924 379.61539
6.6403732 -171.4245 1.3114955 397
7.444767 -171.63342 1.5892415 382.5
9.3813057 -171.74539 1.4897875 386
10.415487 -171.94492 1.1442124 406
13.736481 -171.23515 1.9741387 377.66666
15.241542 -171.47852 1.8971654 359
16.581306 -171.24948 1.789742 354
17.457302 -171.44797 1.7154237 370.25
18.568262 -171.62424 1.7468461 365.25
19.354477 -171.53938 1.6502526 363.70001
20.694778 -171.6086 1.569135 375.5
21.474304 -171.5632 1.7894732 362.70001
22.268181 -171.82057 1.7694669 357
23.987808 -171.77693 1.8084137 362
24.535608 -171.56386 1.9270763 364.60001
31.744114 -171.65218 1.8494626 359
35.414383 -171.32095 1.6318702 371
40.381531 -171.39877 1.9329575 366
-60.236778 -170.49869 1.6314361 471
-59.055634 -170.66922 1.7335365 472
-58.214771 -170.5649 1.7496498 473
-57.425549 -170.47757 1.848825 475.78946
-56.790108 -170.38214 1.5737652 466.875
-55.689346 -170.68636 1.5291637 467.41666
-54.878437 -170.06813 1.5587691 485
-52.429558 -170.50943 1.2659333 473.625
-51.410461 -170.44281 1.3184348 480.75
-50.76453 -170.42815 1.3451538 477.58334
-49.749825 -170.40768 1.1857435 478.39999
-47.357025 -170.99779 1.1633474 483
-46.427368 -170.37785 1.1608105 480.28571
-45.516594 -170.53854 1.1852397 480
-44.730927 -170.49144 1.4847612 461.5
-39.064861 -170.81332 1.2846397 480.89999
-38.654808 -170.23175 1.2902468 481.61539
-37.382408 -170.43849 1.1849791 483.15384
-36.934669 -170.54071 1.1078856 484
-34.135372 -170.63953 1.864623 401
-30.858116 -170.9744 1.6924882 449
-29.611677 -170.35069 1.6948001 455.23077
-28.102997 -170.99715 1.6624773 441
-27.038082 -170.2756 1.7848527 452
-26.668713 -170.28983 1.7247298 430.5
-25.298218 -170.35648 1.787557 449.85715
-24.568577 -170.48402 1.5866046 430.88889
-23.448008 -170.42569 1.6979946 438.6875
-22.555777 -170.36133 1.5357273 430.83334
-21.53583 -170.34883 1.6140205 432.63333
-20.465485 -170.48822 1.5081935 437.84616
-19.295582 -170.42584 1.595669 437.06897
-18.620863 -170.53311 1.5073867 441.22223
-17.382553 -170.47446 1.6428424 432.39999
-16.532221 -170.43983 1.3778648 436.375
-15.356319 -170.46385 1.469419 429.54544
-14.465281 -170.30127 1.4107738 426.12903
-13.465703 -170.31982 1.5735832 418.83334
-12.500972 -170.41623 1.6865808 420.39999
-11.510474 -170.3613 1.5312756 420.29999
-10.466625 -170.29352 1.5904179 423.73077
-9.5356913 -170.36314 1.5324639 424.11111
-8.5720224 -170.22981 1.6890384 418.95834
-7.4110169 -170.37411 1.5971193 418.75
-6.3854575 -170.35974 1.567991 415.4054
-5.4726262 -170.20876 1.6142849 407.45947
-4.3101621 -170.35156 1.5268097 407
-3.5401833 -170.50688 1.3511508 406.34286
-2.4299784 -170.36543 1.4620937 401.06668
-1.5231415 -170.41731 1.5373231 398.18518
-0.53133804 -170.36478 1.6592613 388.54999
0.42081612 -170.35458 1.5248656 393.28204
1.3319211 -170.13321 1.5726933 393.64706
2.5099165 -170.26761 1.6304647 392.35715
3.6044455 -170.26866 1.6949723 375.61539
4.5810809 -170.35489 1.5528893 379.16666
5.4441466 -170.3699 1.5058563 387.33334
6.4440632 -170.27492 1.5157802 379.1875
7.5445304 -170.32069 1.6480494 377.70969
8.5085058 -170.4304 1.3665323 388.91666
9.5809278 -170.31944 1.3021169 386.72726
10.364656 -170.32661 1.6485267 374.5
11.75308 -170.09323 1.5549645 355
12.61132 -170.15854 1.7487321 367.20001
13.606912 -170.43341 1.840705 376.03333
14.699423 -170.52559 1.4751569 356
15.522156 -170.42569 1.5436547 353.5
16.312832 -170.36429 1.5614338 371.42856
17.858759 -170.96294 1.4912597 359
18.225559 -170.49571 1.8930154 378
20.374636 -170.5666 1.4637915 351
22.553825 -170.33043 1.4966779 360.5
24.388836 -170.64928 1.9457881 366.5
-58.515247 -169.61795 1.6798947 472
-57.336494 -169.61234 1.7076811 472.38461
-56.7882 -169.35056 1.6588595 471.20001
-55.25098 -169.67255 1.5101931 464.84616
-54.641266 -169.34271 1.4745151 471
-52.247337 -169.5491 1.2022184 472.39999
-51.430664 -169.44266 1.1441672 484.55554
-50.709644 -169.48645 1.2424555 479.05264
-49.794876 -169.48695 1.2227113 471.54544
-48.389538 -169.04607 1.1768414 484
-47.067497 -169.86035 1.1789968 482
-46.455608 -169.47234 1.1282785 478.66666
-45.686996 -169.57474 1.1634436 479
-39.52647 -169.10378 1.0195677 476
-38.562992 -169.55721 1.2913781 481.66666
-37.539356 -169.58632 1.188592 586.57892
-36.797146 -169.4722 1.6182171 496.80356
-33.707516 -169.95747 1.9229631 437
-29.344595 -169.68959 1.7646124 454.14285
-28.924006 -169.49094 1.7089657 457.33334
-27.593988 -169.52161 1.8115854 457.66666
-26.176086 -169.4261 1.7817644 455.39999
-25.116629 -169.86687 1.6835721 434
-24.376389 -169.4057 1.7899373 434
-23.317827 -169.71715 1.8093337 430.60001
-22.500841 -169.46878 1.7059233 431.89999
-21.517881 -169.709 1.7186428 435.84
-20.507435 -169.68843 1.5708137 434.27274
-19.24515 -169.83446 1.5042788 439.52777
-18.551693 -169.81953 1.6508226 437.07144
-17.359514 -169.31458 1.6211309 431.39395
-16.512857 -169.47917 1.5715363 424.05884
-15.391618 -169.46222 1.6281648 426.32001
-14.567028 -169.61157 1.5454111 428.17648
-13.340272 -169.49467 1.6654092 428.10001
-12.582883 -169.53169 1.6788572 423.0484
-11.4404 -169.72218 1.7281883 424.91306
-10.522358 -169.65402 1.6521752 427.4035
-9.4725561 -169.49048 1.6909927 424.8909
-8.5929279 -169.58134 1.8322116 423.05127
-7.5097795 -169.72145 1.6904618 426.76001
-6.6727247 -169.72449 1.5818644 422.35483
-5.4812069 -169.64061 1.3572246 398.40909
-4.4981709 -169.58766 1.6289437 401.27585
-3.4851637 -169.74792 1.5696688 398.47223
-2.4441795 -169.74843 1.4719586 402.37839
-1.5247003 -169.75429 1.4055941 403.83871
-0.50928146 -169.77266 1.3743266 396.38708
0.45187283 -169.78789 1.5385747 390.03226
1.4274873 -169.75281 1.5388368 390.02704
2.523603 -169.74887 1.6946297 390.96429
3.5656991 -169.62117 1.583221 385.71698
4.4120889 -169.81668 1.5539249 381.32501
5.6932945 -169.73741 1.6259784 394.83334
6.3717918 -169.76436 1.5229977 383.53125
7.3834615 -169.83551 1.5550903 387.77777
8.4017525 -169.75507 1.5964304 381.05554
9.4836817 -169.90727 1.5813794 383.66666
10.415353 -169.88094 1.3430265 388.25
11.349697 -169.87405 1.241832 389.5
12.544285 -169.79495 1.7040919 370.875
13.602022 -169.92218 1.6564583 376.39999
14.162116 -169.94083 1.4214952 382.5
15.478732 -169.83089 1.5125531 365.83334
-57.360573 -168.8987 1.5329303 468.39999
-56.49107 -168.72441 1.5471611 468.375
-55.233265 -168.67116 1.3724254 461.79999
-54.738026 -168.54832 1.3918933 461.73914
-53.859192 -168.70883 1.5204403 484
-52.363132 -168.56647 1.3006706 476.5
-51.611954 -168.40643 1.1452247 483.4375
-50.576302 -168.53061 1.2783267 477.75
-49.71492 -168.54677 1.1578081 471.82352
-48.747139 -168.0647 1.1757509 484
-47.206825 -168.08362 1.1065505 463
-46.333214 -168.52206 1.1315491 478.70001
-45.643585 -168.40254 1.1487458 476.79999
-44.380466 -168.28613 1.604867 456.66666
-40.304737 -168.76538 1.0106392 476
-39.930176 -168.92572 1.0163097 476
-38.340755 -168.56689 1.2272613 481.22223
-37.510559 -168.50658 1.1505705 885.63635
-36.762733 -168.7269 1.5367081 492.71429
-31.00087 -168.09724 1.4704008 439
-29.410172 -168.37863 1.4257488 454.5
-28.838943 -168.41632 1.469565 457.33334
-26.205139 -168.39029 1.812179 451.625
-24.04583 -168.4124 1.7878135 439.66666
-23.935904 -168.65886 1.8203651 441.75
-22.201338 -168.19659 1.7135096 435.3125
-20.209293 -168.37108 1.704475 437.5625
-19.662664 -168.79591 1.9391142 438.25
-18.227779 -168.21654 1.6029043 436.78125
-17.377939 -168.41756 1.6173863 431.51471
-16.414635 -168.46707 1.5261366 429.65384
-15.446473 -168.36418 1.5539982 423.75806
-14.479031 -168.35495 1.5990742 428.15662
-13.53623 -168.49594 1.582659 427.67368
-12.672648 -168.3792 1.6268383 427.44696
-10.29157 -168.30492 1.6840355 424.52777
-9.7894402 -168.03326 1.5451864 444.5
-8.2580709 -168.46953 1.7277453 424.85715
-6.7298512 -168.02818 1.1897341 410
-5.4226623 -168.38533 1.362851 385.83334
-4.3879399 -168.44505 1.6103462 410
-3.8470418 -168.45815 1.063361 389
-2.4913936 -168.45209 1.6508415 402.20691
-1.8985207 -168.54372 1.4704363 496
-0.43525976 -168.18427 1.6058064 398.5
1.4831324 -168.56323 1.7300993 390.15625
4.7579994 -168.66077 1.6194891 353.66666
5.3243647 -168.55008 1.663915 378.70001
6.2434845 -168.41882 1.688518 372.5
7.7322841 -168.52177 1.6853189 369.27585
8.4204645 -168.02658 1.9780476 351.5
9.579195 -168.56683 1.7271881 366.07693
10.349082 -168.03096 1.8007761 382.16666
11.508164 -168.5215 1.6860874 383.75
12.388245 -168.88707 1.0333978 368
13.564757 -168.70219 1.5027055 376.5
15.534471 -168.44502 1.7624942 359.52942
16.026382 -168.69984 1.0804188 367.5
17.510843 -168.75787 1.6869344 374.83334
18.858208 -168.17102 1.0127431 364
23.534876 -168.72224 1.7761065 369.33334
-55.122364 -167.74527 1.1821675 456
-54.416592 -167.68593 1.2207943 456.33334
-53.773022 -167.28799 1.1956946 455.55554
-51.486679 -167.48203 1.2513982 483.18182
-50.542416 -167.60648 1.2115937 480.5
-49.526291 -167.48297 1.1312443 473.17648
-48.79829 -167.61188 1.0964589 474
-47.502731 -167.06021 1.1578171 481
-46.466591 -167.55496 1.0943803 469.5
-45.74184 -167.48526 1.0987105 474.33334
-38.152855 -167.52582 1.0724328 480.39999
-37.449211 -167.39569 1.182417 884.65625
-36.98698 -167.05402 1.0521766 1473
-30.37886 -167.53603 1.5652 447
-29.322109 -167.62665 1.4256244 452.53845
-28.434336 -167.24467 1.746943 452.85715
-27.471046 -167.21405 1.7930305 450.33334
-26.484104 -167.35764 1.6880555 452.05884
-25.654673 -167.08812 1.8722657 438
-24.267509 -167.21906 1.5232844 436.44446
-23.362713 -167.09268 1.3850375 439.47058
-22.505503 -167.21309 1.6462091 436.39026
-21.48534 -167.2213 1.3135593 435.44446
-20.451572 -167.28137 1.4780591 439.04544
-19.56196 -167.29533 1.367961 439.27869
-18.434578 -167.41844 1.6979927 441.45001
-17.530739 -167.64682 1.6365519 421.89362
-16.419447 -167.63593 1.6735358 431.95123
-15.43468 -167.50984 1.6116953 428.09558
-14.482519 -167.59731 1.5912472 429.94781
-13.549635 -167.65865 1.64551 428.95999
-12.74023 -167.65587 1.8466247 431.60001
-11.271544 -167.18486 1.4163767 421.92856
-10.612235 -167.2308 1.6065918 421.84091
-9.5690479 -167.21039 1.5161227 434.15909
-8.3759565 -167.36833 1.4744585 405.77777
-7.4359479 -167.31519 1.4407883 407.02084
-6.477499 -167.27415 1.4816995 411.79807
-5.4852638 -167.26768 1.6495073 401.09525
-4.5665722 -167.28639 1.715819 397.50748
-3.4374821 -167.24933 1.6418644 400.51898
-2.4929583 -167.32782 1.7080654 397.94763
-1.5097587 -167.30725 1.6599734 401.11935
-0.62587428 -167.36505 1.6532056 403.26666
0.6581977 -167.27885 1.6937457 389.77216
1.5559008 -167.21165 1.7072977 384.92856
2.4826467 -167.31816 1.6940186 388.08411
3.3881087 -167.23236 1.7186896 392.95947
4.5442195 -167.23773 1.6950326 386.06668
5.4159689 -167.27 1.678454 370.69388
6.5690479 -167.22697 1.7300938 372.47742
7.5014601 -167.35033 1.7717701 366.7663
8.4970312 -167.30457 1.6619092 367.00397
9.5442629 -167.4238 1.6900752 374.88058
10.546338 -167.38152 1.644756 370.88205
11.455692 -167.3054 1.6497322 369.66861
12.54113 -167.28564 1.7350196 371.57001
13.55832 -167.26129 1.6641183 374.52524
14.451175 -167.27731 1.560186 363.69232
15.467041 -167.36885 1.7126832 362.99301
16.461426 -167.20644 1.6078181 364.19049
17.473207 -167.19456 1.6580755 370.19177
18.407869 -167.26509 1.5699883 369.58463
19.544586 -167.15239 1.7159028 344.89474
20.475374 -167.17673 1.5701642 363
21.527887 -167.20192 1.5876594 375.10416
22.422342 -167.16672 1.7313703 368.57779
23.598444 -167.09177 1.6717356 357.83334
24.582521 -167.14359 1.7120447 363.27777
25.608929 -167.12561 1.6196154 373.83783
26.528894 -167.35089 1.8869008 366.52942
27.730543 -167.1244 1.7513924 384.83334
28.355616 -167.20605 1.9916168 394.66666
29.667473 -167.04451 1.5869179 373.88889
30.543852 -167.06891 1.5504252 370.42307
31.390009 -167.07346 1.5762755 368.875
32.377651 -167.21532 1.7040488 374.08334
33.790821 -167.04247 1.645195 378.33334
35.603275 -167.09216 1.7745707 367.5
36.2542 -167.04424 1.8876626 391
37.804714 -167.09 1.8984535 401.5
38.845322 -167.06506 1.9335726 365
39.286255 -167.0674 1.7873764 367
40.558353 -167.185 1.653376 368.36365
43.257378 -167.0394 1.6288162 368
51.483784 -167.00458 1.7094506 384
60.843849 -167.02005 1.5676453 384
-80.490089 -166.10712 1.808562 1463
-69.082031 -166.0986 1.5172443 1485
-67.787788 -166.10399 1.4859738 1485.6666
-53.3922 -166.75748 1.4301845 464.40909
-52.178787 -166.41039 1.3431631 444.66666
-51.3629 -166.49936 1.243955 477.83334
-50.593292 -166.47116 1.194926 481.66666
-49.404587 -166.6283 1.1107759 476.25
-48.474632 -166.62268 1.0885895 475.20001
-47.248001 -166.29396 1.0891118 475.625
-46.524841 -166.31705 1.0709141 476.5
-45.888283 -166.543 1.0452927 467.42856
-44.434021 -166.05139 1.4436551 450
-37.671295 -166.80533 1.3335772 630.40002
-36.866558 -166.72815 1.0741953 1470.4286
-30.133373 -166.78427 1.2997124 446
-29.394238 -166.34073 1.5496849 448.85715
-28.423565 -166.44733 1.804389 447.8161
-27.486248 -166.43996 1.7863144 449.2088
-26.447237 -166.49989 1.78197 444.20969
-25.437761 -166.3546 1.6877083 445.40341
-24.454412 -166.39049 1.6897879 442.07968
-23.475346 -166.39926 1.6839278 441.66904
-22.523886 -166.46144 1.6793516 446.2287
-21.427853 -166.47797 1.6675563 439.55725
-20.488806 -166.41284 1.672417 440.71643
-19.443462 -166.4182 1.6270996 442.75549
-18.462254 -166.40089 1.6325312 447.92648
-17.531818 -166.37421 1.6531584 433.23849
-16.442186 -166.30397 1.6818411 428.09637
-15.558673 -166.31461 1.6550574 432.47305
-14.476192 -166.32693 1.6467571 432.25235
-13.519996 -166.49652 1.5972514 440.38235
-12.477886 -166.39903 1.5660046 422.97632
-11.521715 -166.49797 1.5930632 420.35031
-10.50726 -166.4308 1.580948 428.77679
-9.5235567 -166.39442 1.5493101 424.66043
-8.4895163 -166.37404 1.5143671 415.41101
-7.4354339 -166.47989 1.5887096 411.11899
-6.459506 -166.44531 1.5957788 409.59586
-5.5608292 -166.43469 1.6084571 409.49521
-4.4489012 -166.36523 1.568473 409.36105
-3.4741418 -166.57301 1.6423199 395.42307
-2.478786 -166.53902 1.6182702 398.10846
-1.4744782 -166.5488 1.6202831 400.29593
-0.47696739 -166.51434 1.5756813 407.91068
0.51712179 -166.30182 1.5835797 405.34009
1.5212998 -166.63718 1.6224846 387.53214
2.4611771 -166.61835 1.6707829 393.6608
3.4733813 -166.6153 1.5866463 393.91699
4.5242953 -166.50027 1.6195973 397.49481
5.3777318 -166.45471 1.6413747 390.25443
6.5178738 -166.63524 1.6604161 385.8924
7.5125909 -166.56218 1.680552 389.35968
8.5437469 -166.68825 1.650584 374.24826
9.5121508 -166.45616 1.6478456 389.23941
10.43497 -166.57903 1.6486712 377.35678
11.508267 -166.71945 1.5882728 383.20062
12.426622 -166.67242 1.6518095 390.92548
13.579852 -166.55757 1.5803725 377.5014
14.40675 -166.50871 1.5762182 375.00708
15.508023 -166.70044 1.5400925 362.38046
16.467789 -166.60884 1.559779 366.11597
17.394764 -166.49536 1.5618891 379.23587
18.460102 -166.54066 1.5997933 372.93631
19.473639 -166.70166 1.6775421 364.68628
20.535423 -166.53699 1.5754529 384.13043
21.482166 -166.76845 1.5655062 387.99219
22.683144 -166.73044 1.5687011 380.44055
23.443205 -166.53683 1.5755076 385.4649
24.326281 -166.54141 1.5807036 386.30435
25.426771 -166.74544 1.5874243 383.01724
26.538761 -166.72865 1.5919728 377.89322
27.49757 -166.48318 1.639914 382.50296
28.528374 -166.61906 1.7325118 399.21622
29.542168 -166.89819 1.5264535 375
30.436741 -166.7233 1.788357 382.08163
31.603355 -166.77219 1.5626987 375.44446
32.532181 -166.46765 1.6992389 385.28049
33.688236 -166.84171 1.6529994 387.5849
34.336128 -166.7542 1.6353751 390.35715
35.743591 -166.9028 1.6379882 369.57144
36.373348 -166.55721 1.6931736 381.83099
37.722767 -166.87871 1.8591801 401.16666
38.406361 -166.79146 1.7684765 396.91666
39.441212 -166.51236 1.6493243 378.47369
40.587311 -166.83223 1.6367759 385.95651
41.367172 -166.65887 1.6376085 368.25
42.59293 -166.71333 1.7180269 382.78125
43.352444 -166.66364 1.5554951 372.625
44.674854 -166.8456 1.7988589 392.5
45.531975 -166.75455 1.590873 374.5
46.65226 -166.58974 1.7136708 385.78571
47.346344 -166.83493 1.7639872 385.85715
48.432678 -166.67946 1.4814941 383.5
49.625164 -166.63538 1.6792673 389.16666
50.232006 -166.94592 1.7697845 405
51.60862 -166.91637 1.6468134 395
53.174278 -166.67535 1.8307242 380.5
54.944435 -166.78406 1.6412163 384
56.533363 -166.56146 1.9199421 377.39999
57.718239 -166.01294 1.4856861 395.5
61.441158 -166.06718 1.5440408 382.33334
65.347382 -166.056 1.7138577 379
-85.400047 -165.41431 1.9542109 1451.6666
-84.447556 -165.44446 1.9175884 1456.75
-83.378273 -165.40492 1.8913907 1455.6666
-82.654907 -165.49973 1.9079107 1454.7858
-81.467583 -165.5415 1.8761424 1462.5
-80.664726 -165.7368 1.7702093 1462.3334
-79.535789 -165.5636 1.7567829 1461.6666
-78.472275 -165.36302 1.7253838 1461.75
-77.704781 -165.7572 1.7606318 1463
-76.687737 -165.68761 1.7419877 1463
-75.573059 -165.63779 1.7635269 1462.5
-74.475426 -165.76216 1.6422206 1475
-73.913368 -165.39687 1.6941504 1468
-71.350189 -165.50421 1.5615542 1483.8
-70.552818 -165.4136 1.5316283 1483.5714
-69.634682 -165.60023 1.518492 1484.1
-68.389603 -165.37828 1.4836667 1483.3
-67.423164 -165.23563 1.4806004 1479.5883
-66.859032 -165.58224 1.4821936 1479
-52.527641 -165.10367 1.3886287 555.32788
-51.50037 -165.091 1.3222319 1404.6333
-50.555336 -165.19531 1.2492579 1180.6591
-49.739697 -165.15373 1.3384627 569.72528
-48.611305 -165.29294 1.1288297 598.375
-47.456371 -165.49629 1.0818141 479.39999
-46.447411 -165.55823 1.0370077 469.72726
-44.51305 -165.95163 1.443873 450.5
-41.726128 -165.4888 1.0480418 465
-40.344242 -165.17899 1.6835915 495.75
-39.88591 -165.15659 1.4750496 532.41174
-37.3866 -165.28493 1.4496413 523.29285
-36.690399 -165.51468 1.4406744 582.12939
-35.524456 -165.31847 1.3913851 478.57501
-34.546947 -165.51237 1.5899171 484.03061
-33.806778 -165.45575 1.5608616 487.67648
-32.510044 -165.57234 1.6832738 456.88235
-30.597481 -165.19485 1.7612323 404
-29.551481 -165.60727 1.6556847 436.84763
-28.420706 -165.78532 1.5682659 443.1857
-27.592239 -165.45271 1.626949 437.6319
-26.525927 -165.63116 1.6482891 442.03391
-25.456282 -165.78726 1.6294619 441.57303
-24.441954 -165.5674 1.653388 443.29596
-23.432531 -165.62721 1.4717669 448.19727
-22.441633 -165.65056 1.5216659 439.95624
-21.402752 -165.53229 1.6493824 444.54681
-20.676464 -165.80263 1.6457824 459.26813
-19.264622 -165.89618 1.6064281 464.91666
-18.434637 -165.67708 1.5206357 423.2381
-17.619698 -165.59836 1.6362603 435.48401
-16.510426 -165.82846 1.7178642 437.70673
-15.699471 -165.88744 1.6255922 429.23636
-14.453041 -165.47163 1.6022433 434.86758
-13.312228 -165.84055 1.6118783 419.67743
-12.678487 -165.91318 1.6192353 431.73077
-11.127913 -165.30553 1.5866807 423.58481
-10.814126 -165.53722 1.5547756 414.35294
-9.5388489 -165.45943 1.6055466 417.66666
-8.6011095 -165.90259 1.5165836 415.58823
-7.5161891 -165.72047 1.5423318 413.08029
-6.6888666 -165.8988 1.6889493 411.46249
-5.7884784 -165.78534 1.5889212 405.44617
-4.3988714 -165.68578 1.5775894 408.68881
-3.596441 -165.37843 1.677434 432.12
-2.69278 -165.14769 1.7713643 472.92856
-1.6233649 -165.10155 1.7131876 416.88889
-0.19365385 -165.54141 1.6462736 476.95651
0.75748885 -165.63365 1.6433929 409.14404
1.5947319 -165.35152 1.799438 420
2.3660161 -165.11601 1.6527299 422.18182
3.8108213 -165.72212 1.5805 363.97675
4.1901369 -165.72791 1.6089377 406.14999
5.4101839 -165.25789 1.4834116 382.85715
6.4419599 -165.09621 1.5112938 392.07407
7.4833035 -165.75256 1.6483563 397.80597
8.5377674 -165.08109 1.4201115 364.62857
9.6384621 -165.33531 1.5100508 377.80676
10.620873 -165.57866 1.5376014 381.48987
11.479954 -165.36426 1.4235042 367.07526
12.43547 -165.2588 1.3707824 342.3158
13.666423 -165.57269 1.551265 383.19543
14.430086 -165.16968 1.4010139 359.13159
15.539287 -165.2498 1.4672015 343.91025
16.497181 -165.25974 1.4195184 347.48236
17.35655 -165.38991 1.5751491 383.51947
18.478178 -165.22464 1.5956278 348.67212
19.506371 -165.14149 1.5642134 355.42682
20.601551 -165.20396 1.5306429 363.14816
21.361387 -165.1769 1.5423151 384.37903
22.439199 -165.23572 1.6903205 352.57144
23.330292 -165.25078 1.5257051 367.71429
24.768957 -165.3047 1.622655 413.75342
25.491871 -165.22913 1.6111785 388
26.341921 -165.21404 1.6556884 364.23077
27.608534 -165.37671 1.8764564 369.57895
28.5389 -165.24519 1.6450487 411.63751
29.699352 -165.29549 1.5077139 371.71429
30.455309 -165.07716 1.6143255 367.33334
31.632679 -165.46841 1.722527 381
32.17012 -165.29512 1.6054785 404.14285
33.479877 -165.29263 1.6330221 367
34.909248 -165.35638 1.9178485 365
35.754333 -165.31355 1.6691766 400.01282
36.543613 -165.33185 1.3913128 379.91306
37.3578 -165.39218 1.2719389 372.75
38.45232 -165.34641 1.5424082 373
39.407986 -165.37297 1.5924839 401.68332
40.916115 -165.43256 1.7492962 367
41.079792 -165.40826 1.6334777 368
42.686138 -165.44975 1.6929328 367
43.109997 -165.42764 1.6244094 395.23334
44.886864 -165.47098 1.7764233 366
45.232224 -165.45795 1.4945562 368.5
46.72052 -165.48401 1.6778792 395.63635
50.44051 -165.43578 1.6459949 393.21738
51.606339 -165.00047 1.988089 364
54.106548 -165.41595 1.6242059 391.22858
57.749748 -165.41718 1.6425551 383.78946
61.487762 -165.33888 1.6780701 380.375
65.357452 -165.31149 1.7042595 378
-83.128868 -164.56262 1.7474203 471
-78.597321 -164.65013 1.8228644 471
-73.359276 -164.73347 1.6804681 1469.1666
-72.541695 -164.80246 1.6809562 1466.4
-71.46711 -164.47569 1.7723465 968.79999
-70.349472 -164.74321 1.585979 1153.4445
-69.699661 -164.80637 1.4593461 1102.7
-68.470078 -164.8387 1.6071609 1462.75
-67.805618 -164.56792 1.5556477 836
-66.348137 -164.27855 1.641328 1451.9318
-65.504272 -164.31017 1.606686 1455.0361
-64.497551 -164.29761 1.5942564 1372.8969
-63.487896 -164.27917 1.5553511 1291.4814
-62.494423 -164.26546 1.5649266 1150.9286
-61.486591 -164.27731 1.5478854 1053.2957
-60.412971 -164.28899 1.6018561 978.63904
-59.494694 -164.25955 1.5878122 808.3894
-58.480194 -164.25941 1.5311633 726.21704
-57.482174 -164.26398 1.5085682 717.46863
-56.481621 -164.28937 1.4932455 771.23608
-55.495808 -164.306 1.4779688 841.65674
-54.503223 -164.32426 1.4756482 849.6734
-53.47282 -164.33388 1.4702146 813.37689
-52.503963 -164.46214 1.4696038 689.38629
-51.519627 -164.69536 1.4073477 594.58081
-50.503895 -164.73961 1.3999413 646.69104
-49.748192 -164.81596 1.3324417 773.53302
-48.542961 -164.38953 1.1326003 1030.0625
-47.376312 -164.20393 1.1339123 843.29413
-46.619808 -164.18332 1.1072236 1076.0454
-45.616474 -164.02625 1.1156954 1477.1666
-44.651855 -164.27061 1.1863623 734.63635
-41.684326 -164.59262 1.057986 465.5
-40.40794 -164.68684 1.4941022 506.57574
-39.815247 -164.59975 1.4615923 643.65344
-38.02562 -164.43759 1.0546336 495
-37.571968 -164.61411 1.4460894 501.54123
-36.865543 -164.29005 1.7547046 617.85712
-35.3214 -164.68967 1.1370394 473.60001
-34.618702 -164.76289 1.0917275 477.5
-33.644672 -164.3587 1.6161025 482.5
-32.985016 -164.01875 1.8960145 453
-30.867207 -164.58704 1.9192263 440.39999
-29.543402 -164.48596 1.7902331 435.74765
-28.569309 -164.33699 1.6899166 437.36273
-27.430565 -164.29831 1.6525934 443.33804
-26.46072 -164.31967 1.607545 444.29807
-25.387503 -164.34183 1.4864656 457.76968
-24.518761 -164.27289 1.5208744 439.45834
-23.557909 -164.35846 1.5161052 447.67294
-22.457157 -164.38219 1.5022807 448.9635
-21.40591 -164.30368 1.5622118 446.26569
-20.624569 -164.34669 1.4646291 435.98727
-19.543478 -164.40451 1.4782777 440.00943
-18.457634 -164.40594 1.4975941 432.57391
-17.394575 -164.24658 1.5583375 440.00934
-16.618563 -164.35016 1.5171142 427.17752
-15.488594 -164.27444 1.4584699 425.05902
-14.469234 -164.35718 1.4317605 425.86035
-13.512102 -164.32594 1.5391698 425.39429
-12.545522 -164.409 1.3699543 420.8934
-11.470873 -164.31323 1.4041897 423.60464
-10.480688 -164.37466 1.4102584 420.84784
-9.5545568 -164.36136 1.509228 419.43478
-8.5108509 -164.33508 1.4239068 412.20554
-7.4269047 -164.48911 1.4312215 415.37564
-6.575891 -164.55983 1.4347886 423.20651
-5.6045108 -164.42226 1.5842103 420.07425
-4.4846277 -164.43686 1.44756 409.54514
-3.5149565 -164.44505 1.4373702 402.67874
-2.3925984 -164.52098 1.4497137 400.33334
-1.5999194 -164.35979 1.542416 412.02905
-0.53082108 -164.41106 1.402936 396.54761
0.49179518 -164.43234 1.3770807 392.14951
1.5393319 -164.42186 1.4199908 389.18683
2.3683445 -164.50458 1.5245786 405.53387
3.4832618 -164.55333 1.3578023 388.17133
4.4730959 -164.57117 1.377856 385.38687
5.6314168 -164.5192 1.3956443 381.16013
6.265996 -164.47791 1.5100688 401.43527
7.5049481 -164.54256 1.3290349 373.44986
8.4996996 -164.55046 1.2825648 368.59076
9.6867762 -164.55447 1.4954852 377.3913
10.419358 -164.3941 1.3615509 379.78729
11.407225 -164.41805 1.3272377 357.92593
12.571952 -164.48611 1.3217708 352.70123
13.513597 -164.44783 1.4871856 381.82907
14.528544 -164.6225 1.385146 359.89243
15.523477 -164.59714 1.3615354 353.26221
16.61471 -164.60104 1.3979352 352.78049
17.389061 -164.49124 1.4911476 372.60831
18.448425 -164.66628 1.4635607 355.20587
19.675652 -164.45863 1.4691293 351.44617
20.688515 -164.55742 1.6169268 370.63562
21.340618 -164.52066 1.5168382 397.94897
22.679415 -164.68347 1.4656663 368.18558
23.297644 -164.57866 1.4685364 368.25674
24.699095 -164.66721 1.5994947 392.91904
25.462126 -164.63699 1.4763702 385.125
26.531422 -164.64012 1.5072302 360.94873
27.481401 -164.56506 1.6850463 362.54544
28.480232 -164.66277 1.6099269 402.37888
29.482866 -164.72047 1.5656435 367.26923
30.554102 -164.70097 1.6499466 362.27274
31.455099 -164.41353 1.5842856 360.35294
32.211685 -164.67725 1.5287548 400.54477
33.324989 -164.74783 1.3315499 372.5
34.758472 -164.66679 1.2391328 374
35.744457 -164.64648 1.5567781 400.49515
36.004868 -164.8037 1.1276498 441
37.503582 -164.65253 1.8383826 361.16666
38.445927 -164.63441 1.8802876 360.60001
39.426945 -164.6423 1.565338 399.1868
40.592934 -164.54071 1.7710967 362.8125
41.713692 -164.63341 1.7169291 363.46155
42.441254 -164.17409 1.6807632 363.27274
43.204472 -164.64354 1.5959867 389.97873
44.447342 -164.52283 1.5530267 364.77777
45.45853 -164.27469 1.6048044 366.5
46.702454 -164.67688 1.548548 396.31747
48.886791 -164.62979 1.8650001 362.33334
49.562202 -164.03851 1.8899629 364.5
50.416817 -164.69553 1.6265296 391.2157
51.706413 -164.84589 1.6719395 366.20001
52.995499 -164.09183 1.990923 357
54.092049 -164.7802 1.6059586 391.20001
55.511654 -164.4198 1.4562535 366
56.61438 -164.3035 1.4198457 365.5
57.745514 -164.77853 1.5516844 386.51724
59.228607 -164.22012 1.6052397 366
60.620117 -164.14549 1.434611 367
61.484291 -164.76117 1.5962638 381.95001
65.338547 -164.7827 1.7522917 377
-87.336891 -163.32277 1.8170371 1460.6666
-86.731331 -163.66972 1.8178279 1461
-85.518494 -163.62285 1.900504 1458.6666
-71.331154 -163.48486 1.9214834 474.33334
-70.050301 -163.03114 1.5728858 464
-68.348732 -163.07101 1.6064866 462
-67.829796 -163.50446 1.9666045 487
-66.485298 -163.61813 1.7441049 463
-65.545151 -163.64366 1.7300771 461.57144
-64.52018 -163.62933 1.7188437 466.07843
-63.561096 -163.6774 1.737026 460.5
-62.60078 -163.67853 1.7418227 462.91525
-61.370113 -163.68588 1.7646756 466.02325
-60.421322 -163.67421 1.7628292 460.6875
-59.562473 -163.74539 1.7563953 467.2449
-58.542099 -163.77992 1.7422428 466.58139
-57.472466 -163.74405 1.632634 464.92648
-56.53759 -163.76743 1.5272921 466
-55.477116 -163.81714 1.5155181 467.54718
-54.4468 -163.79872 1.3890163 471.3158
-53.461208 -163.80336 1.4783398 464.64615
-52.672001 -163.82025 1.5539323 457.3721
-51.512051 -163.47891 1.141965 476.07144
-50.3536 -163.57423 1.0567991 479.60001
-49.227642 -163.64842 1.3582065 483.0625
-48.549374 -163.68536 1.2517722 550.75
-47.547821 -163.74113 1.5706562 484.17142
-46.5737 -163.74905 1.5878505 482.125
-45.165173 -163.41014 1.5569251 499.92648
-44.693729 -163.54338 1.4648777 564.80084
-43.648575 -163.1868 1.0570892 438
-40.383186 -163.64102 1.4964089 499.55646
-39.705273 -163.4357 1.4536791 558.01825
-38.51244 -163.22209 1.3380537 962.94739
-37.551693 -163.29562 1.4318035 504.52173
-36.560562 -163.2394 1.2145631 476.13333
-34.360142 -163.05013 1.9518137 559
-33.523575 -163.73305 1.680631 474.18918
-32.92186 -163.94839 1.960602 456
-31.25609 -163.13049 1.852438 472.625
-30.254353 -163.11003 1.9022796 371.5
-29.400908 -163.61641 1.6241797 445.35443
-28.667091 -163.49107 1.5950761 435.54956
-27.38113 -163.64018 1.4572364 444.54858
-26.523993 -163.71587 1.5432669 442.66525
-25.402025 -163.52898 1.5199281 444.8092
-24.548237 -163.38634 1.319697 440.75229
-23.500746 -163.72305 1.3877957 438.96054
-22.340256 -163.54774 1.3524448 439.69614
-21.515175 -163.6805 1.4875908 434.17734
-20.427639 -163.57903 1.2881782 430.3978
-19.540903 -163.62242 1.3271233 430.46402
-18.557842 -163.66122 1.3385502 429.51514
-17.584427 -163.68759 1.4084648 423.71564
-16.646589 -163.62367 1.3468692 419.31506
-15.630677 -163.48892 1.2270807 416.51416
-14.392814 -163.4216 1.2599761 417.10284
-13.555945 -163.55504 1.2977998 414.04453
-12.638545 -163.3739 1.162948 412.20493
-11.556708 -163.32475 1.2290069 408.57745
-10.369516 -163.33139 1.2479235 405.16965
-9.6046419 -163.53667 1.3180981 406.24615
-8.496562 -163.40294 1.2594972 405.12265
-7.5247812 -163.54768 1.277009 406.88889
-6.628397 -163.65848 1.3003767 403.9957
-5.5507808 -163.63039 1.3016 404.30933
-4.4367909 -163.41336 1.2327012 401.1311
-3.4254606 -163.45079 1.2756822 397.11896
-2.551914 -163.52008 1.236106 395.07462
-1.5186702 -163.57378 1.1764586 398.91772
-0.56235605 -163.35326 1.1843264 389.14572
0.46369582 -163.4379 1.2045612 389.55429
1.5527887 -163.41866 1.1805915 386.17618
2.4689517 -163.56555 1.2111419 392.0842
3.380152 -163.45273 1.191704 387.20691
4.3890772 -163.47462 1.1591964 380.76572
5.4285636 -163.43465 1.2119076 383.02139
6.5224876 -163.54868 1.2073315 382.50748
7.526145 -163.60402 1.1845093 372.95764
8.3344011 -163.64114 1.1940356 366.49286
9.478323 -163.55612 1.1709421 357.04324
10.396828 -163.55881 1.2065723 363.25305
11.575335 -163.7023 1.2253945 361.62744
12.445977 -163.74449 1.2347866 360.37424
13.405362 -163.56223 1.2565111 354.10141
14.600175 -163.68141 1.3057733 346.8577
15.509505 -163.62111 1.2889909 343.41779
16.546495 -163.73981 1.3147143 344.2919
17.55456 -163.7229 1.3039944 339.17545
18.613144 -163.73328 1.3158356 345.40259
19.697756 -163.53368 1.3791744 344.89401
20.512363 -163.48311 1.3800865 352.77158
21.362064 -163.43497 1.2469628 352.43826
22.513779 -163.60852 1.285153 351.21429
23.451056 -163.75804 1.3272606 357.52844
24.379461 -163.7632 1.3193821 357.16843
25.490425 -163.81946 1.3982508 359.44775
26.663824 -163.8015 1.3558431 363.91666
27.325884 -163.72797 1.3794417 361.72974
28.474407 -163.86543 1.3523433 362.54999
29.398609 -163.76724 1.354843 362.17242
30.571545 -163.94026 1.2696172 363.46155
31.632113 -163.87267 1.2553877 362.91666
32.296432 -163.83835 1.230587 369.79999
33.531948 -163.91267 1.2370094 365.75
34.284084 -163.75285 1.1546605 364.93332
35.453472 -163.70833 1.3462653 365.22223
37.445877 -163.78568 1.0880738 364
39.770515 -163.81174 1.5985247 373.14285
41.468212 -163.8571 1.5366434 364
42.87315 -163.78044 1.8725404 356.25
43.363953 -163.73495 1.474568 401
44.772072 -163.50294 1.7117321 362.6875
45.82832 -163.97176 1.3809686 369
46.796696 -163.52156 1.270492 418.33334
49.561577 -163.9314 1.7492282 365.5
50.321793 -163.84779 1.9610845 356.33334
54.060154 -163.65466 1.4469 399.33334
55.836693 -163.97461 1.4111428 367.5
60.58382 -163.47995 1.3941061 367.10001
61.584686 -163.0338 1.4530978 366.66666
-87.397034 -162.44229 1.82329 1460.5
-73.000961 -162.1705 1.6001387 469
-72.207748 -162.06949 1.6250975 470
-71.020699 -162.80536 1.8837917 475
-70.792885 -162.50681 1.6809825 468.63635
-69.655052 -162.84306 1.6198342 461.57144
-68.572067 -162.84567 1.5694494 461
-67.698906 -162.46384 1.8194045 480.75
-64.720757 -162.56041 1.8219228 486
-62.587234 -162.49112 1.5837927 470.08334
-61.382759 -162.39023 1.5857217 481.20001
-60.607586 -162.5827 1.6953014 478.83334
-59.485897 -162.42421 1.4602326 478.69232
-58.694801 -162.55276 1.5575397 486
-57.468258 -162.52115 1.3567637 476.84616
-56.523762 -162.44119 1.2654923 471.73077
-55.341946 -162.45436 1.1867014 484.78571
-54.364086 -162.58655 1.124791 480.88235
-53.403851 -162.5347 1.1162385 473.8421
-52.234028 -162.23427 1.3350559 471.88708
-51.67313 -162.39537 1.1433781 833.09088
-50.401379 -162.69617 1.0364395 483.60001
-49.279236 -162.54089 1.0323958 476.75
-48.513237 -162.76462 1.0161479 456
-47.514187 -162.61841 1.9251864 461.13333
-45.115612 -162.44644 1.0805842 885.71429
-44.61372 -162.46288 1.3133404 445.53
-43.651821 -162.45152 1.0203868 438.5
-42.104958 -162.68539 1.0803607 437
-41.678146 -162.24429 1.0282035 436.33334
-40.312813 -162.70798 1.4987452 491.56534
-39.733562 -162.78853 1.4686571 579.84723
-38.414619 -162.46437 1.3850654 576.3913
-37.343002 -162.25241 1.4779071 483.06384
-36.531288 -162.24323 1.4139674 476.2446
-35.662872 -162.10408 1.5076518 471.57635
-34.504856 -162.04202 1.4775162 470.29413
-33.538105 -162.04306 1.4646505 464.50793
-32.467232 -162.05687 1.4799471 465.56152
-31.438156 -162.22211 1.4647486 470.73566
-30.555082 -162.06927 1.4484714 468.64224
-29.510967 -162.22667 1.4428718 450.01016
-28.441645 -162.52066 1.4391 449.311
-27.395306 -162.57372 1.3759769 442.19928
-26.455256 -162.77827 1.4385633 431.75909
-25.561396 -162.65285 1.3032057 422.01059
-24.559893 -162.83716 1.3858156 434.8869
-23.285177 -162.78391 1.3031205 426.4151
-22.396746 -162.7438 1.3409688 423.11539
-21.564808 -162.80457 1.2547532 419.56494
-20.461344 -162.61247 1.3250629 411.92856
-19.528137 -162.80287 1.2977542 420.0993
-18.463354 -162.64238 1.3272055 429.36841
-17.686798 -162.66557 1.2569108 421.0191
-16.309244 -162.46242 1.3143904 415.69565
-15.777523 -162.64668 1.1949799 413.46295
-14.51025 -162.74905 1.3340688 407.49124
-13.703928 -162.81905 1.2813572 420.35052
-12.474154 -162.40559 1.3495907 442.57144
-11.642849 -162.67035 1.4539151 401.48148
-10.424994 -162.54469 1.3814899 423
-9.3637619 -162.33192 1.4528196 447.85715
-8.1974173 -162.85745 1.3155727 398.64151
-7.7537198 -162.81995 1.1527501 404.70834
-6.3864684 -162.89261 1.1307908 396.25925
-5.5207887 -162.86107 1.2146089 395.61166
-4.4832106 -162.93758 1.1861265 397.31146
-3.1916666 -162.92319 1.1194429 398.17648
-2.9514997 -162.94366 1.069899 391.5
9.8356371 -162.97487 1.1079179 384.33334
15.519482 -162.35536 1.2420611 298.33334
16.193462 -162.90387 1.2751733 299
17.542561 -162.94763 1.2791278 296
21.662573 -162.96916 1.273849 354.69446
22.055609 -162.97543 1.1921297 363.16666
36.339382 -162.21208 1.1088318 354
60.595539 -162.95743 1.0319749 369
61.886883 -162.77786 1.3444475 367.16666
62.216061 -162.18098 1.96512 363.33334
67.217484 -162.39525 1.9277589 362
68.581818 -162.16344 1.5903659 365.5
-87.370644 -161.55672 1.8315277 1460.4
-83.402405 -161.25197 1.7498112 1460
-82.328217 -161.25803 1.8308717 1455
-73.683952 -161.71893 1.5822511 469.66666
-72.603607 -161.56668 1.5587306 469.39999
-70.841019 -161.47778 1.6112987 469.46155
-69.347061 -161.62006 1.9132853 478.5
-67.604477 -161.56726 1.8572452 483.71429
-64.37117 -161.37888 1.7559432 486
-62.322136 -161.00058 1.4072251 451
-61.378021 -161.45691 1.5812019 481.76471
-60.514118 -161.50497 1.6341276 473.89999
-59.409321 -161.41559 1.4042634 482.22223
-58.543507 -161.41185 1.5295273 462.83334
-57.408283 -161.62215 1.3773102 467.88235
-56.556374 -161.41141 1.26468 463.28571
-55.497131 -161.48969 1.2949423 464.95834
-54.475716 -161.50508 1.2333199 467.93332
-53.530914 -161.52673 1.1191334 483.75
-52.232033 -161.83414 1.3631229 494.34042
-51.667065 -161.47397 1.0332911 480.75
-50.566792 -161.7717 1.017354 484
-49.238293 -161.74483 1.0063404 475
-45.212826 -161.29309 1.2688335 613.20001
-44.471828 -161.50368 1.4181068 551.22809
-43.571228 -161.45186 1.4138525 711.07318
-42.482239 -161.42578 1.517363 516.44037
-41.467617 -161.47031 1.4425203 540.0105
-40.684902 -161.49602 1.4482933 541.10907
-39.930538 -161.66661 1.0175974 1477.5
-38.184734 -161.44737 1.4205849 488.18182
-37.615536 -161.722 1.4966727 469.97501
-36.632263 -161.86758 1.4734489 447.33334
-35.78352 -161.80931 1.3945049 442.79166
-34.522324 -161.96513 1.5872627 477.66666
-33.514915 -161.96518 1.5674896 487.38016
-32.519966 -161.94174 1.5754615 488.18182
-31.304354 -161.76736 1.5500062 471.48001
-30.560968 -161.81465 1.5710207 474.34784
-29.54825 -161.61592 1.5239493 453.875
-28.50806 -161.54672 1.4374987 456.02942
-27.203238 -161.8624 1.4109845 438.11111
-26.555799 -161.60255 1.4657445 426.86331
-25.641655 -161.30318 1.4833361 412.80554
-24.519279 -161.16415 1.4973023 403.69565
-23.508095 -161.1859 1.4902121 395.55554
-22.609493 -161.19919 1.4944531 389.20001
-21.582478 -161.39958 1.5093975 385.14285
-20.543495 -161.46291 1.4351202 381.61539
-19.543083 -161.4259 1.3335961 378.89999
-18.494448 -161.24348 1.2272531 376.16666
-17.486557 -161.21455 1.1487008 374
-16.432667 -161.14659 1.6580389 371.75
-15.440136 -161.08536 1.6415013 369.33334
-14.988877 -161.16405 1.5226152 368
-13.787008 -161.12012 1.2448772 365
36.468498 -161.40771 1.1006067 355.75
62.377953 -161.99544 1.8936409 364
64.508202 -161.06091 1.7451987 364.5
68.575974 -161.50516 1.2699299 367
-87.269615 -160.44005 1.8740984 1461
-73.213165 -160.91521 1.5878524 472
-72.123901 -160.95003 1.5219656 470
-71.931305 -160.0343 1.4391023 470
-70.770103 -160.66905 1.5261426 468.88889
-69.682022 -160.51195 1.5568368 469.5
-68.755234 -160.56584 1.5622473 467.85715
-67.340385 -160.67247 1.7247677 476.16666
-66.6082 -160.21521 1.6735436 475
-63.931152 -160.41951 1.7028179 486
-62.132935 -160.23892 1.3647522 449.5
-61.327263 -160.57507 1.5718879 478.625
-60.45512 -160.44766 1.4521115 460
-59.432911 -160.49289 1.4414903 479.63635
-58.603638 -160.55186 1.4819392 466.18182
-57.628693 -160.6031 1.3523459 474.89999
-56.496201 -160.43889 1.1986889 473
-55.537575 -160.50697 1.2362394 470.2963
-54.44772 -160.45911 1.2298096 464.88235
-53.505619 -160.54279 1.1081039 482.36365
-52.221859 -160.39436 1.1852356 452
-51.871719 -160.27008 1.2369319 475.41464
-49.753185 -160.30476 1.2224141 423.5
-47.50943 -160.43839 1.1718574 419.5
-46.233303 -160.40987 1.1061463 415.83334
-45.273247 -160.73529 1.1368896 402.88889
-44.885174 -160.92114 1.0990825 422
-37.391804 -160.61699 1.4918541 484.60001
-36.458279 -160.43196 1.3741333 460.17242
-35.478806 -160.29121 1.4438729 474.32431
-34.512733 -160.39218 1.3882421 472.75
-33.52047 -160.42766 1.4688779 469
-32.47369 -160.56744 1.5195137 465.54544
-31.360376 -160.7811 1.5442398 462.28571
-30.528112 -160.79712 1.5627199 459.20001
-29.507086 -160.81015 1.5225214 454.04166
-28.779924 -160.85266 1.4947517 449.71429
-25.370012 -160.94922 1.4722023 405.22223
-24.475487 -160.95035 1.4647087 398.81818
-23.254807 -160.97639 1.4695333 390.66666
-18.263523 -160.99091 1.1244538 374
-17.574469 -160.95306 1.0643473 373
-16.349192 -160.92943 1.8550477 371.5
-15.661833 -160.78612 1.664673 369.75
-14.511295 -160.77838 1.3865023 366.83334
-13.540149 -160.71182 1.1611061 364.39999
-12.864287 -160.81897 1.067678 362.75
10.217659 -160.26883 1.0457734 300
33.782326 -160.67857 1.0075094 355
34.145691 -160.2276 1.00379 355
36.710068 -160.58397 1.0923254 356
37.296906 -160.5302 1.0963901 357
41.055649 -160.97574 1.2281908 358
-87.291344 -159.47824 1.8882105 1461
-70.453606 -159.51491 1.4582607 470.14285
-69.318855 -159.50609 1.7725798 478.71429
-68.302406 -159.49387 1.7662798 479
-67.179329 -159.56644 1.7301643 475.25
-66.337563 -159.43765 1.4952006 741.02039
-65.961189 -159.68861 1.7163941 1438.5
-63.805626 -159.84488 1.6681745 486
-61.578327 -159.41313 1.4728627 473.66666
-60.424896 -159.58861 1.3437897 449.66666
-59.378899 -159.39624 1.5149446 471.875
-58.540123 -159.66692 1.4396164 458.41177
-57.48822 -159.47105 1.3533375 464.83334
-56.314022 -159.48866 1.1704469 473
-55.60083 -159.42532 1.1827763 473.04761
-54.558849 -159.51669 1.2486686 457.57144
-53.618858 -159.66106 1.0766201 483.28571
-52.74379 -159.48236 1.0594978 479.33334
-51.118469 -159.15633 1.1907543 426
-50.44096 -159.39268 1.2234907 831.79999
-49.706726 -159.96686 1.2018732 423.5
-47.583641 -159.83896 1.1283766 419.25
-46.397762 -159.62721 1.1815459 421
-45.283466 -159.60435 1.0724263 425.75
-44.577114 -159.56427 1.1753474 566.63965
-32.518101 -159.07294 1.364105 378.5
-31.845564 -159.18564 1.7977288 372
20.940319 -159.17973 1.3036978 353.6842
21.509466 -159.31958 1.3951665 365.23077
22.360731 -159.30667 1.447656 372.61905
23.699783 -159.7318 1.2243292 372.14285
34.366501 -159.92807 1.0014879 355
37.450661 -159.71278 1.0893195 356.39999
38.136478 -159.15863 1.0833272 357
41.464848 -159.13297 1.0200244 361
50.497879 -159.25986 1.8801715 362
67.122353 -159.29042 1.4821908 376.28571
-87.173744 -158.51962 1.9138471 1466
-85.390404 -158.31526 1.901958 1477.8334
-84.800949 -158.07878 1.9813852 1463
-74.181976 -158.02582 1.7619524 1476.5
-66.349678 -158.80034 1.3901896 467.90909
-61.573822 -158.64346 1.241804 449.5
-60.275856 -158.56346 1.2753512 448
-59.472832 -158.52327 1.2708637 449
-58.606888 -158.54439 1.4215719 473.5
-57.51804 -158.51431 1.2840493 465.68182
-56.289028 -158.31573 1.3897403 497.1279
-55.62075 -158.22282 1.4784467 490.48203
-54.585442 -158.52621 1.198836 449.85001
-53.678314 -158.563 1.1431704 465.25
-52.475182 -158.59933 1.2080401 861.79999
-51.460789 -158.80054 1.1201485 424.33334
-49.278599 -158.26924 1.1181587 424
-48.881981 -158.84731 1.184576 425
-47.387177 -158.49565 1.0876814 420.83334
-46.460949 -158.5538 1.0829403 521.79999
-45.944637 -158.0666 1.0974002 421
-44.301689 -158.26146 1.115697 1113.5555
-43.972092 -158.25002 1.0731744 938
-33.361298 -158.09514 1.0687567 368
-32.590027 -158.55238 1.3495672 371.875
-7.2845931 -158.03517 1.2005789 432.33334
-6.6053185 -158.07051 1.0821413 435
10.621819 -158.44702 1.0627007 296
11.106026 -158.55925 1.0819937 296
12.426125 -158.03928 1.1232724 295
20.928616 -158.64427 1.2477067 355.02985
21.482628 -158.37349 1.4678088 360.08594
22.478371 -158.40573 1.7029008 363.72058
23.461843 -158.12915 1.7629271 358.64706
24.704424 -158.02571 1.3341368 355.53845
25.064371 -158.01744 1.1123161 358.66666
41.732323 -158.72643 1.0059142 361
43.114231 -158.53632 1.0384386 360
67.147667 -158.57352 1.8502345 362
68.716515 -158.44908 1.5468349 366.39999
-87.081123 -157.54776 1.9312829 1473.2222
-86.286011 -157.99402 1.8927685 1461
-85.621658 -157.9646 1.8822509 1461
-69.263145 -157.36588 1.9348201 489
-66.430054 -157.66158 1.6817313 548.33331
-65.904282 -157.28421 1.5208155 761.86206
-60.534435 -157.22472 1.4398793 482.25
-59.748524 -157.48405 1.6131866 1225.0667
-58.540707 -157.45409 1.3750732 483.92307
-57.376518 -157.56218 1.247118 467.76666
-56.270416 -157.45392 1.4569881 501.15454
-55.58604 -157.46155 1.4879847 592.84247
-54.74482 -157.57513 1.3065932 874.22223
-53.694336 -157.45963 1.1684242 447.25
-52.205368 -157.24355 1.2193923 469
-51.837986 -157.45346 1.2973288 1304
-50.709438 -157.3138 1.075251 425.85715
-49.16885 -157.86307 1.1373228 426
-48.782833 -157.34172 1.0642397 423.75
-47.591179 -157.92081 1.0338812 420
-46.333755 -157.39128 1.062893 763
-45.209339 -157.68787 1.179074 544.76471
-44.667637 -157.89023 1.2537272 436.26666
-43.392357 -157.20764 1.0452399 932
-40.721886 -157.41861 1.0197349 1446
-33.167736 -157.91547 1.0644666 368
-28.297642 -157.10257 1.181301 368.5
-27.279789 -157.01193 1.4585118 370.5
-22.461353 -157.11575 1.05077 380.5
-21.287149 -157.07651 1.1659603 382.5
-20.289888 -157.19655 1.2335702 384.66666
-19.242611 -157.30779 1.2783899 386.66666
-18.450081 -157.40654 1.3200243 389
-17.650867 -157.54482 1.3641136 392.28571
-16.488062 -157.33713 1.6230741 396.76923
-15.514115 -157.30083 1.5832124 400.78946
-14.630939 -157.28076 1.4834909 404.41177
-13.508764 -157.18135 1.3745668 408.83334
-12.550027 -157.17178 1.3646199 412.47369
-11.444925 -157.38383 1.37058 416.73914
-10.34677 -157.64528 1.4005547 420.77274
-9.4816589 -157.72812 1.348772 424.31818
-8.5181818 -157.77524 1.2272701 428
-7.6022658 -157.83873 1.2387486 431.16666
-6.6593132 -157.89813 1.0778046 434.75
10.767557 -157.79651 1.0281701 291.66666
11.402153 -157.81311 1.0757647 294.125
12.33032 -157.86465 1.1176996 294
15.785555 -157.5434 1.2595298 293
16.579254 -157.60368 1.2849845 292
19.972227 -157.0089 1.0579238 345
20.352859 -157.2291 1.065212 350.5
21.573051 -157.90431 1.2627375 352.76001
22.435396 -157.82045 1.28645 353.875
23.576281 -157.92101 1.3581383 358.36584
24.336149 -157.77373 1.181206 356.9375
25.419134 -157.4368 1.0810524 360.72726
26.100428 -157.38022 1.069047 358.79999
29.901268 -157.2784 1.3488604 357
30.60294 -157.28978 1.2582263 361.22223
31.508038 -157.25191 1.2411573 362.25
32.448162 -157.32491 1.2101537 362.25
33.161331 -157.54341 1.1635094 362.66666
37.889744 -157.22847 1.1718467 360
38.56498 -157.27507 1.4266096 373.04877
48.910408 -157.12398 1.9931954 361
49.266888 -157.21519 1.2323612 387.55554
50.221809 -157.38855 1.8396959 362
51.681904 -157.06079 1.3711584 374.28571
52.500881 -157.05275 1.3628629 371.5
53.477295 -157.10718 1.4251131 371.42856
54.52198 -157.12817 1.172364 367.5
55.632965 -157.16589 1.1572883 367.5
56.625057 -157.39391 1.3879151 366
59.988289 -157.50122 1.8773429 363
68.735641 -157.60541 1.3603152 367.72726
-87.048767 -156.98376 1.9454424 1478
-86.937714 -156.37067 1.9297531 1479
-71.838531 -156.06239 1.9381411 483
-69.162712 -156.13882 1.764715 482
-67.364372 -156.38162 1.6917696 533.94116
-66.397758 -156.6386 1.65687 751.23212
-65.820816 -156.75342 1.7352227 1200.3214
-62.605267 -156.41985 1.4538311 486
-61.289032 -156.07106 1.0150356 452
-60.507332 -156.60217 1.3990918 483.875
-59.263988 -156.6367 1.3898238 469.83334
-58.449627 -156.68353 1.4866654 488.02777
-57.421272 -156.71179 1.4802108 490.05661
-56.400852 -156.7975 1.4657786 501.31454
-55.776009 -156.74402 1.3751522 487.35385
-54.723068 -156.56038 1.0742017 453.625
-53.505257 -156.56673 1.1619987 435.39999
-52.708809 -156.64772 1.140521 432.85715
-51.709499 -156.23787 1.2972925 1227.4445
-50.347828 -156.52348 1.0968627 595.83331
-49.401337 -156.38753 1.057879 427
-48.721687 -156.48375 1.0520411 426
-47.214634 -156.40811 1.2438643 1441
-46.703442 -156.74956 1.1221268 932.5
-45.186558 -156.29231 1.0703315 760.33331
-44.199276 -156.16519 1.1421685 1449.4
-43.885067 -156.01253 1.1488035 1445
-41.76432 -156.51401 1.069887 1437
-40.155582 -156.36336 1.0114717 1454
-28.015013 -156.90404 1.2436345 369
-27.321484 -156.742 1.4454939 370.5
-26.389639 -156.73454 1.7540754 372.33334
-25.423054 -156.75049 1.9256393 374.5
-24.459579 -156.74586 1.9702492 376.33334
-23.654322 -156.5793 1.9929178 378
-22.472134 -156.93808 1.0383643 380.5
-21.508587 -156.96191 1.1379105 382
-20.704197 -156.88837 1.1921575 384
-13.177941 -156.58624 1.0628245 378.5
-12.600195 -156.55273 1.0677269 380.89474
-11.699719 -156.6041 1.0669795 379.75
-6.0417089 -156.34036 1.5030535 400.66666
-5.7192855 -156.29625 1.4507158 411.8584
8.8767862 -156.14052 1.030493 371.84616
9.4685307 -156.16183 1.0319078 367.74417
10.67704 -156.18126 1.1399603 343.77301
11.235117 -156.15279 1.1024786 338.5
17.412716 -156.62967 1.2980117 286
19.94813 -156.66589 1.0329279 349
20.451822 -156.56879 1.0736113 351.70587
