# .PCD v0.7 - Point Cloud Data file format
VERSION 0.7
FIELDS x y z intensity
SIZE 4 4 4 4
TYPE F F F F
COUNT 1 1 1 1
WIDTH 1262
HEIGHT 1
VIEWPOINT 0 0 0 1 0 0 0
POINTS 1262
DATA ascii
48.324429 13.668653 7.559432 99.800003
49.248299 13.585286 7.7192135 105.1875
50.308369 13.513934 7.8172121 108.5
51.712162 13.472255 7.3776498 115.375
52.07061 13.793237 7.2636595 242
69.526741 13.460388 7.6186905 202.71428
70.822334 13.257186 7.7726288 252.57143
71.538246 13.495202 7.5260949 264.375
72.245789 13.708047 7.6167011 278.31818
77.09433 13.815282 7.9996772 203
-65.16774 14.594705 7.4866171 478
-63.048698 14.535768 7.5494862 473
-62.311096 14.71405 7.3673396 475.66666
-61.667679 14.544721 7.5932574 469.54544
-60.412361 14.475475 7.7410793 465.69232
-59.820961 14.583067 7.8150916 471.39999
-58.657509 14.086459 7.7329211 476
-57.851929 14.212331 7.4579773 476.85715
-56.514717 14.606688 7.7258162 488.79999
-55.360054 14.543048 7.5800538 468.14285
-54.660793 14.660448 7.474884 515.78571
-53.440636 14.599487 7.3350577 490.92856
-52.36573 14.348531 7.3268824 483.79999
-51.558296 14.246767 7.4938579 488.32144
-0.76362324 14.703009 7.4774194 30.261311
-1.4858421 14.505906 7.4008627 29.719013
-0.056065984 14.0829 7.33146 30.406116
36.969547 14.317047 7.1379442 153
37.152344 14.61769 7.1245661 170.96875
44.910622 14.369855 7.0184565 99.5
45.435486 14.591136 7.1446724 102
46.490459 14.457155 7.2520752 103.33334
47.497303 14.541626 7.4149504 105.5862
48.51038 14.528482 7.6169944 102
49.575661 14.456974 7.4862061 97.739128
50.680836 14.515351 7.4677472 93.909088
51.737587 14.269272 7.4381542 136.06667
52.262966 14.52348 7.3986993 110.45795
53.049736 14.471928 7.2136688 241.5
70.801414 14.785304 7.2700524 268.66666
71.691162 14.442888 7.6026053 246.84616
72.286293 14.542456 7.5848022 278.14706
73.175217 14.190851 7.4083095 283.75
74.800629 14.647862 7.3562903 201
75.790421 14.580147 7.520854 292.5
76.109726 14.800888 7.492331 301.5
-63.20488 15.599805 7.8963161 482.33334
-62.370304 15.495066 7.5290446 482.25
-61.58606 15.54485 7.6162133 472.91666
-60.299702 15.26278 7.3962913 475.11111
-59.734535 15.599337 7.5423841 476.71429
-58.498207 15.496711 7.2907505 482
-57.111198 15.645179 7.2760758 487
-56.423145 15.339355 7.6729665 493.78946
-55.373161 15.578973 7.4921808 502.11111
-54.680016 15.426342 7.5288978 504.72223
-53.269787 15.193578 7.4200516 489.60001
-52.138695 15.132046 7.2275357 487.5
-5.2459383 15.906017 7.2793064 23.736841
-4.4541769 15.633703 7.4720855 26.775
-3.5528412 15.209031 7.618784 36.397434
-2.7984014 15.116095 7.7049165 48.400002
46.808182 15.401426 7.2531095 106.25
47.407688 15.324176 7.4676094 104.33334
48.552242 15.310356 7.6678548 105.41177
49.517391 15.592849 7.5888362 102.25
50.246086 15.512843 7.3431234 89.722221
51.478607 15.520938 7.3967896 85.625
52.549583 15.539107 7.5622034 82.34259
70.83947 15.328936 7.4961448 238
71.246735 15.384876 7.5684986 239.5
72.208862 15.35037 7.538825 253.5
74.67025 15.124806 7.3004861 201
75.791786 15.457348 7.6764588 270.83334
76.326797 15.461131 7.6017728 298.6207
-63.606194 16.470903 7.8526011 480.5
-62.549667 16.443634 7.6741343 483.11111
-61.623543 16.299021 7.5578318 480.2381
-60.366344 16.666016 7.457366 482.20001
-59.297607 16.612404 7.5662436 470.92499
-58.811008 16.640499 7.5484014 463.85715
-57.410816 16.473696 7.0793991 481
-56.293159 16.387735 7.4286799 488.85715
-55.174774 16.484734 7.5497942 496.56
-54.806564 16.318586 7.5718307 497.76923
-7.2194228 16.882595 7.3182335 27.25
-7.285295 16.394175 6.9054618 78.304733
-6.9918509 15.079302 7.1261039 61.304562
-8.9653845 15.234283 7.6864839 70.416664
45.810223 16.064463 7.0505204 108
47.510204 16.271826 7.3383436 109.875
48.38409 16.316353 7.5558615 110
49.58873 16.544159 7.5210471 101.88889
50.542698 16.500454 7.3130865 97.964287
51.588264 16.345484 7.3705359 77.222221
52.426563 16.399817 7.5337038 88.179489
53.417465 16.684288 7.6483603 87.5
54.075317 16.766466 7.5704498 60
70.815338 16.689598 7.4805923 200.5
71.643028 16.399424 7.7498593 200.33333
72.825615 16.459297 7.155571 243.33333
73.212311 16.752514 7.3958688 333
75.626221 16.952618 7.1718254 318
76.528664 16.025747 7.2928219 321.5
78.040085 16.951702 7.0808954 327
-62.61171 17.001497 7.5643778 484
-61.754078 17.342306 7.3173699 485.33334
-60.22319 17.233027 7.1449518 484
-59.248005 17.326803 7.3685241 470.5
-58.696777 17.385603 7.4123011 479.46155
-57.251293 17.330261 7.6916852 479
-56.79306 17.502026 7.3242321 466.75
-55.024101 17.087193 7.5535622 488.5
-0.0015440517 13.318338 4.4154091 148.24722
-5.7245126 12.612432 5.4172034 101.02048
-5.3820844 15.745059 6.116569 102.0848
-10.787683 16.560032 7.3967571 74.307693
38.425659 17.528824 7.3430061 96.35714
46.71423 17.618465 7.0809879 108
47.838684 17.899452 7.1023521 106
48.462646 17.651562 7.1972413 101
49.373062 17.354984 7.1818037 99.307693
50.491013 17.399576 7.2776165 94.818184
51.508385 17.678013 7.536315 102.8
52.214222 17.435375 7.4741621 94.5
53.554764 17.465841 7.5336399 86.037041
54.71843 17.696709 7.4848089 67
67.709328 17.908756 7.6267047 207.28572
68.332336 17.757002 7.7176514 201.41667
69.301636 17.823408 7.1151729 200
71.051979 17.208658 7.6320395 199
73.64035 17.729252 7.5680728 297.22223
74.153503 17.798561 7.4343958 305
75.495995 17.663961 7.5232239 309
76.32505 17.622181 7.3701453 286.66666
77.709534 17.2108 7.2401261 324
-61.333054 18.758543 7.5267205 450.44446
-60.37532 18.47015 7.2848315 464.11111
-59.500656 18.407238 7.3631449 457.46667
-58.614502 18.338207 7.3915176 480.92307
-57.857231 18.581421 7.1919184 487
-8.9536505 17.609146 4.4560571 122.30434
-12.585584 16.965204 5.9397297 123.04147
-9.7774134 16.203066 6.0958757 98.943726
-10.918222 17.463657 7.5353522 58.176044
38.779228 18.11898 7.5524364 87.222221
39.019165 18.116632 7.1332531 106
46.919159 18.364985 7.1114678 102
47.409023 18.367411 7.1114306 99.974358
48.473827 18.302633 7.2864776 97.333336
49.446499 18.516962 7.3598785 105.73333
50.570042 18.64073 7.4625258 106.18182
51.755089 18.575499 7.5484014 104.48276
52.267609 18.491079 7.4198427 85.919998
53.580933 18.297771 7.4773073 79
54.102165 18.233221 7.3325806 67
55.481194 18.579952 7.5175605 68.14286
65.590919 18.980007 7.7017183 210
66.220161 18.835217 7.1539359 202.5
67.71843 18.472864 7.575418 211.33333
68.657005 18.582401 7.2230706 206.42857
69.114792 18.834068 7.0866079 197.25
71.885887 18.549072 7.6757469 197.33333
72.433228 18.205669 7.4681869 195.5
73.746063 18.392448 7.5742202 301.26666
74.320885 18.642405 7.590838 315.69049
75.131172 18.568035 7.3736 323
84.554932 18.955973 7.9208755 196
-80.965698 19.602612 7.1004567 454
-63.651501 19.365557 7.8481889 453.66666
-62.333359 19.515762 7.5855632 448.83334
-61.463692 19.608204 7.5063939 451.57144
-60.637482 19.231632 7.3739738 451.25
-58.625851 19.758694 7.3011627 450
-5.8015594 13.654619 4.0250936 108.03913
-3.8720534 11.521118 5.0607023 95.792938
-9.3313828 14.955832 7.1166234 28.825001
40.08321 -11.665368 -1.8093138 473
39.669113 19.922554 7.0213385 101
47.645535 19.569122 7.2516451 103.86364
48.780819 19.282047 7.5516324 103.5
49.674423 19.422075 7.4787598 101.8
50.66077 19.378405 7.5295258 107.90909
51.576332 19.50918 7.4731436 104.12281
52.457516 19.556517 7.3087802 112.71429
53.50927 19.549065 7.3732018 84.666664
54.433704 19.292885 7.3073931 69.36364
56.158794 19.667934 7.0728078 80.5
65.692177 19.310984 7.4745545 201.39999
66.243919 19.715836 7.3178153 199.3125
67.675751 19.617319 7.4848251 262
68.447853 19.633318 7.255722 273.65216
69.348152 19.623627 7.4222298 262.57144
71.449226 19.783611 7.439671 274.18182
72.264969 19.682163 7.388176 281.28571
73.744675 19.579927 7.670886 304.79999
74.339668 19.57568 7.6072044 319.07501
75.4935 19.591942 7.5427141 319.5
76.078438 19.768944 7.5279012 296
-63.494911 20.089092 7.5058336 447
-62.410553 20.424891 7.9359336 450
-61.863258 20.427826 7.2368736 457
-32.739197 31.553013 -3.3969951 534.94342
-8.6459713 17.817772 5.3004055 118.82625
-11.497845 18.181709 6.1593819 94.355652
-7.1275969 18.641003 7.1644726 48.104942
9.2650061 14.948963 6.3300877 104.80188
39.916985 20.495417 7.3100061 98.391304
40.166279 20.723587 7.263525 101.78947
47.88332 20.120806 7.3681335 101.33334
48.155075 20.684168 7.4265862 105
49.604786 20.425451 7.6528778 104.9
50.555233 20.4862 7.7808599 104.4375
51.439281 20.490702 7.45856 113.68293
52.509098 20.496778 7.4119902 119.19048
53.143208 20.449562 7.4737711 117
54.886009 20.420137 7.0201221 77
55.311981 20.573595 7.2115021 74.083336
56.436756 20.354156 7.4265418 71.25
65.750862 20.40416 7.5238423 199.29167
66.428581 20.43429 7.5426841 199.27907
67.043457 20.761316 7.7268662 202
68.561974 20.395952 7.1989679 269.79999
69.47261 20.393442 7.0969648 268
71.5755 20.162895 7.1183233 285.55554
72.503624 20.308653 7.3564224 281.53333
73.591927 20.665977 7.5975285 315.11111
74.288727 20.438393 7.1598115 322.83334
75.463318 20.130857 7.572917 292.5
76.80616 20.727657 7.7499309 294.5
77.709167 20.714149 7.6677527 319
-31.478483 25.843761 -3.8844337 54
-11.643485 13.2583 4.167069 98.040199
-14.24631 16.35466 5.2425427 130.53537
-6.5579481 14.128881 6.6629243 38.349998
-13.634881 21.04422 7.9170036 20
40.446331 21.276052 7.456706 95.122452
48.61208 21.498009 7.433166 106.91666
49.873138 21.582899 7.6556396 106.6
50.74469 21.501417 7.3828416 115.78947
51.398861 21.405853 7.4178576 117.95454
52.243023 21.263336 7.2420912 115.75
53.809792 21.717836 7.1714935 72
54.577957 21.483234 7.1884742 74.571426
55.304764 21.270086 7.2234616 75.545456
65.131828 21.140066 7.4208903 202.66667
66.740334 21.125944 7.7689157 200.28572
67.579987 21.373886 7.4422631 195.33333
68.836082 21.515858 7.7393484 203.88889
69.264023 21.630949 7.9036684 195.25
72.788399 21.458811 7.1287155 345.33334
73.563416 21.570827 7.4846416 342.76471
74.544678 21.393616 7.4066696 345
76.979034 21.046574 7.7621269 294
77.907516 21.042 7.2248445 317
-85.107567 22.62155 7.6596851 455.66666
-84.239067 22.995548 7.7687426 487
-82.297913 22.177492 7.5977488 487
-81.659531 22.5688 7.0807953 489.25
-80.820564 22.335621 7.3917093 487
-76.188622 22.785646 7.3354774 458
-19.108973 21.049524 5.6168723 130.22849
-11.603253 18.459484 5.8047009 98.876526
-18.438622 20.810965 6.6613274 114.1213
-21.44857 16.079285 6.341763 193.9529
48.973549 22.085852 7.3670087 110
49.227119 22.647079 7.2722678 110.8
50.663212 22.48904 7.3442297 115
51.361553 22.467928 7.2412229 118.55556
52.580605 22.625265 7.2478943 109.10526
53.345348 22.160145 7.1985269 72.400002
54.439507 22.642696 7.0590587 75
66.599602 22.692379 7.4048648 196.75
67.37236 22.507725 7.9440985 201
68.632072 22.495708 7.4598637 272.125
69.35627 22.402637 7.6849384 229.5
70.219337 22.98315 7.3516932 304
72.610275 22.644653 7.5696921 322.05884
73.339096 22.666462 7.5613441 337.04999
74.209175 22.788094 7.6078839 312.25
75.766617 22.582106 7.5804186 313.71429
76.21402 22.781088 7.4330158 320.25
77.0868 22.672747 7.907022 297
-85.029114 23.625084 7.2559938 468
-84.767647 23.827511 7.4929357 478
-82.671524 23.833481 7.4597549 500
-81.60202 23.741049 7.2882118 493.5
-76.056816 23.753649 7.3733597 458
-75.844299 23.30864 7.3251867 458
-21.505432 23.960163 7.0411406 16
-20.590286 24.012133 7.0620861 347.51614
-9.2456865 14.445909 3.865149 187.30714
-16.851549 16.097519 5.1846938 175.03333
-17.841116 23.053411 7.6336694 21
41.606354 23.677549 7.6080031 106
49.680233 23.541483 7.2761612 112.22222
50.719017 23.680996 7.2642641 108.54839
51.565952 23.670799 7.5723758 113.33334
52.460068 23.508152 7.3615904 118.13043
53.217133 23.496052 7.0832 99
66.787521 23.417341 7.819634 195.28572
67.387993 23.70788 7.5070662 235.41667
68.739441 23.397106 7.4803367 257.03705
69.562263 23.602684 7.5289044 278.10001
70.22406 23.677567 7.4648685 285.56757
71.710876 23.429344 7.2575054 284.5
72.650368 23.632139 7.614429 306.97827
73.361778 23.476032 7.5873532 319.80487
74.466835 23.582056 7.3977051 330.42856
75.631554 23.434181 7.4475188 309.14999
76.316544 23.291279 7.5774126 314.23077
77.46347 23.401745 7.5580001 329.06668
78.342117 23.600266 7.6977539 341
-84.734489 24.079617 7.5170102 477.25
-83.388817 24.859859 7.9059939 501
-82.17981 24.803638 7.7053652 496
-81.576492 24.834152 7.4613938 496.60001
-80.806381 24.802063 7.6915331 498.20001
-76.296021 24.9937 7.0894909 459
-75.549232 24.50234 7.3572783 458
-20.486633 21.280773 6.4869819 88.566277
-20.999241 24.183624 7.0199738 170.151
-22.433645 23.087633 7.2207222 385.48184
41.802887 24.20657 7.8097053 97.333336
42.142933 24.510376 7.2679253 98.67347
49.951256 24.098598 7.5654507 111.5
50.376137 24.636293 7.3759537 107.64286
51.73708 24.493797 7.3480535 103.66666
52.32951 24.367283 7.2301722 96.333336
65.708397 24.72827 7.556757 193.13333
66.573967 24.662962 7.1229725 192.30769
67.50621 24.255859 7.6322837 234.28572
68.212372 24.773081 7.3633099 256.33334
69.732887 24.327724 7.4130764 282.11111
70.402969 24.597189 7.4746532 280.64706
71.197884 24.695377 7.5214367 288
72.595284 24.293386 7.4297357 292.8421
73.39769 24.294313 7.5626678 309.26086
74.592094 24.285311 7.5371284 336.11765
75.368835 24.293856 7.5655971 310.75
76.183212 24.67049 7.6187882 300.39999
77.148903 24.238581 7.4626842 326.33334
79.917526 24.271797 7.680285 279
-88.384972 25.80563 7.5036812 469.25
-85.943535 25.80958 7.0326324 519
-84.14978 25.28738 7.1489987 493
-83.387535 25.204706 7.5279417 502.5
-82.861732 25.338476 7.5519195 502
-81.625854 25.83547 7.6003098 486.5
-80.755135 25.464397 7.4492106 493
-77.059235 25.760502 7.3100443 460
-76.621895 25.678061 7.4441395 458.25
-75.824066 25.157396 7.424202 458
77.148903 24.238581 7.4626842 326.33334
-19.443089 25.442209 7.6288109 385.75
50.339714 25.083012 7.4275856 113
51.860664 25.442247 7.4284906 103.66666
52.613152 25.375328 7.5394688 96.190475
65.689819 25.22945 7.6248703 192
66.739555 25.332399 7.2176681 190.89999
67.176071 25.778185 7.2473226 190
68.339874 25.214895 7.397172 248.88889
69.676682 25.425032 7.3689609 257.18182
70.544342 25.280462 7.4459124 272.73685
71.393448 25.467871 7.3877378 282.26315
75.739799 25.386847 7.444346 319.41666
76.298805 25.301813 7.7117825 295.81818
-90.30159 26.50383 7.6849337 475.28571
-88.194 26.287802 7.701365 479
-86.219299 26.979702 7.0627122 514
-85.672638 26.712837 7.274025 510
-84.405716 26.809891 7.7212772 503
-83.784538 26.40612 7.6408925 501
-82.339462 26.631855 7.5680132 500.8125
-81.469887 26.646219 7.6757846 491.33334
-80.713882 26.117443 7.453124 486.5
-79.195541 26.973709 7.9039264 458
-78.499176 26.629862 7.8065152 458
-77.481934 26.172779 7.6667695 458
-34.798588 26.697041 7.5715971 367.125
-19.083216 26.391521 7.4672408 390
-18.810631 26.701368 7.5253377 387.70834
43.276028 26.909868 7.4672375 114.23529
51.9198 26.250919 7.4745932 102.57692
52.201893 26.374058 7.5116415 85.055557
53.995949 26.382772 7.5508442 113
54.048176 26.749199 7.8232636 102.33334
66.896255 26.171597 7.3054414 187.5
67.174561 26.253338 7.3515449 188.76923
68.754944 26.487049 7.6335921 190
69.550774 26.417009 7.2388787 200.08333
70.571205 26.507101 7.2082586 265
71.418343 26.579365 7.3967819 286.43137
73.756531 26.440292 7.6384029 331.33334
74.215286 26.759134 7.5632067 343.60001
78.478439 26.723213 7.6551313 191.5
79.415787 26.442865 7.9597335 192
-90.135773 27.089607 7.2510872 484.5
-86.017883 27.17606 7.0113211 514
-85.342735 27.401775 7.5330772 500.625
-84.737381 27.650194 7.6168938 504
-83.328514 27.622498 7.9432659 498.5
-82.26001 27.232058 7.521565 497.75
-81.645782 27.392204 7.6111746 490.20001
-80.765465 27.783812 7.6216598 481
-34.549725 27.613958 7.421628 399.26437
-18.478401 27.539604 7.5483217 397.37143
-17.947298 27.953716 7.5531921 398.75
43.647488 27.525158 7.5904469 105.51136
44.027027 27.979404 7.6363392 120
52.673126 27.625547 7.511745 101.88235
53.034706 27.752279 7.540606 76.199997
68.692329 27.918562 7.1743026 184.66667
69.512344 27.427835 7.6283708 188.5
70.596588 27.346746 7.3235765 257.95456
71.647232 27.454992 7.4038763 283.85184
72.220406 27.443199 7.4897213 287.90909
73.279839 27.624365 7.5309596 349.33334
74.182167 27.52949 7.6382909 349.33334
-89.412842 28.943365 7.1985683 514
-87.834602 28.63331 7.0434289 514
-85.537727 28.663778 7.7660789 511
-84.584908 28.665056 7.5787196 503.54544
-83.620796 28.556757 7.4886651 500
-81.50869 28.34643 7.6529984 479
-80.77739 28.449169 7.3989487 480.875
-75.504028 28.095634 7.9981575 457
-36.141392 28.963633 7.4071403 63.666668
-35.421196 28.898989 7.3223858 371.83334
-34.403034 28.562656 7.4447012 427.75
-33.916824 28.746147 7.1358814 414.81818
-18.218739 28.100565 7.3397613 392.41666
-17.82029 28.398775 7.468843 389.59091
43.786842 28.07196 7.7143755 82.800003
44.087952 28.016239 7.3603144 123
52.829201 28.461277 7.5191231 113.86275
53.142673 28.634291 7.3761849 115.73135
68.6735 28.306879 7.4033966 186.60001
69.434052 28.526541 7.3627577 184
70.470871 28.132076 7.4142227 186.8
71.670258 28.221033 7.3005848 264.5
72.363518 28.177183 7.8338065 241
73.551369 28.142778 7.4568028 323.5
74.407928 28.376949 7.6407208 351.5
-99.45163 29.958893 7.1048222 478
-95.717705 29.673409 7.5313148 479.5
-87.842995 29.261765 7.4525948 500
-86.789734 29.447906 7.5432496 501.71429
-85.662109 29.856466 7.6288986 496
-84.523636 29.482134 7.5633283 501.7619
-83.876541 29.936365 7.2848864 508
-81.326241 29.563766 7.6559253 483.66666
-80.3442 29.549109 7.7991948 486.66666
-79.835876 29.398304 7.934123 485
-38.94318 29.56356 7.126852 16
-37.357086 29.834435 7.3489923 475.31033
-36.200855 29.612637 7.2925754 465.73151
-32.526123 27.775404 6.9766502 318.2475
-34.4258 29.427195 7.3715143 468.20731
-33.675442 29.5411 7.3594928 409.91837
-17.352074 29.640886 7.2985797 383.14285
-16.948374 29.906614 7.6914511 377.5
44.770958 29.804144 7.1409445 121
53.174038 29.205736 7.3702087 114.16666
54.075653 29.866602 7.6947894 131.83333
66.548553 29.638449 7.8145776 181.5
67.368729 29.41394 7.8246703 184.28572
68.345383 29.258677 7.9478998 186
69.636086 29.804138 7.537262 182.8
70.552246 29.479637 7.6655121 183.54546
71.278168 29.304264 7.7005506 186.25
-99.446396 30.000496 7.1736932 479
-95.469467 30.133312 7.635499 484.5
-88.365479 30.533676 7.6335044 486.33334
-87.230133 30.5466 7.710279 506.22223
-86.51049 30.547056 7.7030773 510.75
-85.904678 30.997923 7.9314394 506
-84.559761 30.395103 7.379108 490.75
-80.237823 30.673666 7.9228883 485
-41.361008 30.829483 7.3758249 16
-40.253853 30.720617 7.3979168 465.11765
-39.454762 30.671379 7.368876 467.94446
-37.855602 29.695759 7.1009297 361.85678
-37.552563 30.334534 7.4530878 499.58694
-36.573261 30.293188 7.4955511 485.97058
-26.274872 23.634567 5.8542705 203.50185
-35.122025 30.12129 7.4147234 519.60205
-33.327915 30.521622 7.519114 411.25455
-32.836864 30.814804 7.3098035 415.5
-17.201706 30.438169 7.4536848 397.32257
-16.749043 30.685381 7.2816763 390.03845
44.923016 30.25275 7.5651693 122.52941
45.331413 30.694014 7.3803916 120.03571
53.892902 30.272861 7.3207064 124
54.382526 30.641415 7.6368847 113.5
63.738144 30.868126 7.5709352 275.36365
64.837471 30.70409 7.7348547 175.75
65.577896 30.70822 7.4049759 197.59091
66.248558 30.522833 7.6948681 204.3125
67.470421 30.522894 7.592474 206.81818
68.713844 30.734243 7.6421108 206
69.404305 30.417734 7.6142726 181.5
-101.70319 31.596056 7.2601061 478.5
-99.003891 31.569828 7.7979612 485
-98.766777 31.950956 7.8774309 484.5
-88.117935 31.606396 7.4060125 486.5
-87.59137 31.846039 7.4869137 491
-86.359818 31.545116 7.6348414 502.5625
-85.654793 31.420748 7.3724923 486.625
-84.625839 31.719538 7.0960879 464
-43.850517 31.980652 7.6212993 16
-42.304058 31.704166 7.5646305 463.66666
-41.395412 31.669285 7.3915467 350.32257
-40.505531 31.620329 7.4986105 403.08823
-39.567451 31.375502 7.5111437 489.03192
-38.666233 31.255686 7.5470853 495.88889
-37.279961 31.686436 7.7580128 488.75
-36.450249 31.415222 7.4418654 471.20001
-35.489265 31.545584 7.1182756 368.39999
-32.146904 29.51927 6.7702179 218.32968
-33.316078 31.395576 7.4753027 448.88034
-32.744385 31.613693 7.4437361 430.17242
-16.474579 31.363503 7.6760559 393.1915
45.616814 31.141308 7.3839655 118.42857
54.802078 31.421682 7.4787869 143.1579
55.079586 31.858265 7.5448284 129.61539
62.860134 31.961918 7.184999 275
63.766861 31.351311 7.4348826 269.73334
64.429306 31.557203 7.4110489 276.14285
65.569878 31.161434 7.521946 240.75
66.133827 31.345116 7.2338276 236.75
67.376251 31.701462 7.4605765 175.33333
68.599785 31.26008 7.6067882 179.83333
69.446335 31.392395 7.9277015 177
-98.546959 32.297356 7.8351893 484.5
-87.560989 32.450901 7.5797701 492.54544
-86.426254 32.199745 7.6650977 499.70001
-85.799835 32.08461 7.4577522 496
-84.292831 32.477837 7.1252646 464.79999
-83.847595 32.960583 7.246244 467
-44.456436 32.837448 7.5944672 463.44446
-43.317463 32.795048 7.5979962 214.11111
-42.455593 32.637955 7.4594722 495.28101
-41.518105 32.347157 7.500701 489.64517
-40.618946 32.18679 7.5630746 473.80646
-39.622894 32.118416 7.6608987 505.33334
-38.950089 32.104454 7.6521616 491
-37.704815 32.403488 7.7689824 494.5
-33.424305 29.431252 6.3418684 124.32218
-33.931023 31.458033 7.1683936 498.02817
-32.386181 32.571148 7.444448 412.63208
-31.911682 32.789089 7.6800241 391.14285
-16.093613 32.334141 7.5872774 387.61539
-15.858724 32.717587 7.4713435 386.95834
46.351761 32.933037 7.0063457 134
54.929852 32.407475 7.1229596 108.66666
55.314342 32.500401 7.4552264 141.87288
61.495941 32.627651 7.3323951 268.35715
62.310352 32.736835 7.1419215 268.71429
63.435196 32.396858 7.3761444 279.16666
64.467804 32.268776 7.4000549 235.38889
65.530495 32.392014 7.3557754 182.875
66.465706 32.50206 7.544415 182
67.51963 32.242058 7.5138845 174
80.639969 32.958118 7.9342723 277
82.861755 32.230965 7.7838826 311
-100.97212 33.315983 7.8923402 485
-95.596443 33.773399 7.9179058 500
-87.40847 33.203449 7.7203383 510.66666
-86.584671 33.699703 7.3496699 464
-84.052368 33.011292 7.1624851 465
-47.077763 33.856892 7.9416804 460
-46.188934 33.499508 7.8133965 16
-45.251385 33.764626 7.55444 446.45834
-44.528313 33.579552 7.4605904 482.40964
-43.457581 33.318108 7.4389534 476.53622
-42.638538 33.239212 7.5070791 480.38889
-41.644535 33.146912 7.5868554 492
-36.11515 33.303841 7.1261587 506
-35.734028 33.635651 7.5608859 496.69565
-34.598541 33.396343 7.638566 375.55554
-34.045486 32.777336 7.254199 190.62222
-32.383312 33.519165 7.50071 465.18918
-31.797531 33.601982 7.477767 422.79611
-16.014248 33.04039 7.2832251 398
-15.486596 33.514126 7.4162469 391.13434
-14.959785 33.992252 7.2405539 388
46.705528 33.549591 7.4823923 128.50589
47.43623 33.898403 7.549437 349.85715
55.576447 33.475338 7.3326826 122.90909
56.111988 33.811905 7.484632 155.66667
60.649853 33.681171 7.097249 261
61.586418 33.360565 7.392869 265.41177
62.356007 33.562901 7.4849176 266.44
63.56974 33.53273 7.2851453 209.93333
64.602219 33.63385 7.4913106 224.75
65.240417 33.66111 7.5779591 192.33333
66.406342 33.774956 7.7195492 178.5
67.549973 33.946106 7.0569072 274
77.656029 33.558464 7.4508414 274.33334
78.00412 33.585152 7.9299188 280
79.488289 33.411732 7.759933 276
80.687592 33.064331 7.9581132 278
-94.579262 34.862183 7.8157096 483
-93.104446 34.073975 7.0197592 485
-87.194794 34.455006 7.5454798 466.5
-86.748016 34.009735 7.4386482 466
-50.36705 34.816727 7.0846357 459.5
-48.507008 34.620617 7.9565034 17
-47.31469 34.777683 7.4304605 475.7037
-46.595161 34.591915 7.4100642 479.01999
-44.735592 33.838299 7.5267897 460.18436
-44.725616 34.218472 7.5586567 510.51111
-43.537632 34.119221 7.0432558 485
-40.948391 34.270012 7.4053297 471
-35.551182 34.259811 7.3767343 494.29999
-33.984901 32.245831 6.5058999 208.9122
-32.028248 32.047195 6.9119921 457.32831
-31.450792 34.479652 7.4885182 431.96909
-30.923536 34.749077 7.4655304 378.42105
-15.177131 34.228477 7.4746737 395.23077
-14.702969 34.64222 7.2271495 389.56668
45.668442 34.900375 7.7021594 321.44446
46.503517 34.678352 7.7365503 318.78125
47.355061 34.459885 7.5170546 200.73447
48.416252 34.424522 7.3635368 345.60001
56.456623 34.459023 7.5607185 154.70329
61.614048 34.397411 7.3125076 263.5
62.612698 34.53154 7.4117532 293.86957
63.457256 34.38829 7.3665609 276.55554
64.324593 34.388496 7.5107927 281.28571
65.525024 34.513954 7.6137385 282.66666
66.812569 34.500179 7.9237809 167.66667
67.069336 34.768349 7.7914047 250
68.774963 34.153568 7.3044691 171
77.6689 34.080086 7.6871824 275
-101.1151 35.933865 7.739295 485
-94.321426 35.893219 7.4672232 498
-89.703697 35.463604 7.2772417 487
-54.076038 35.448689 7.7021832 458.66666
-53.905907 35.86652 7.7428942 458.75
-50.198574 35.109161 7.1466022 462.5
-49.293419 35.663013 7.7013712 470.58066
-45.443275 33.801315 7.2962484 444.1467
-45.367996 32.539459 7.1621795 481.34265
-46.686451 35.23317 7.5961132 493.16
-45.386505 35.069302 7.5028491 175
-17.226933 19.876295 6.7828159 252.40105
-35.748734 35.718025 7.431921 472
-34.080643 35.110733 7.1544733 496.5
-36.134193 34.79969 5.9723434 421.6875
-30.727362 26.637373 5.9736323 420.80457
-31.303637 35.490559 7.3820052 465.22726
-30.76243 35.63282 7.470407 418.4538
-14.557741 35.182159 7.3948584 396.17648
43.814201 35.834496 7.6068802 329
44.568626 35.557747 7.6484199 329.52777
45.42038 35.378239 7.6488414 328.55884
46.262512 35.106762 7.635541 322.57144
56.732784 35.259556 7.4394679 148.84906
57.049862 35.481655 7.3515706 168.33333
61.839485 35.202854 7.0136962 264
62.583466 35.520695 7.3774133 273.3125
63.281544 35.418957 7.4021926 271.73685
64.428886 35.584423 7.5102654 275.16666
65.321083 35.757092 7.6433845 260.5
67.23848 35.217224 7.1158772 206
74.511032 35.90295 7.4139972 280
75.674431 35.557674 7.672225 293
76.502396 35.349678 7.8558254 305
-95.0439 36.117828 7.8101277 483
-94.415062 36.431271 7.7225971 490
-93.374237 36.733227 7.0109115 493
-92.523911 36.841648 7.6074495 468
43.893799 12.277097 6.4660277 91.541664
-55.237377 36.679947 7.0479145 465.25
-54.295338 36.74654 7.6670947 475.83334
-53.625935 36.587532 7.6396437 468.46667
-45.371147 29.156902 6.3122697 456.3822
-49.578316 36.444321 7.5410628 496.55356
-48.677055 36.175934 7.5502534 494.89474
-49.732616 32.734016 7.2027173 248.05714
-46.853233 36.059895 7.0511627 517
-36.76664 36.613617 7.6456461 481.5
-33.231899 36.886055 7.3270159 458
-32.377251 36.706249 7.2720213 484.64999
-31.511957 36.578251 7.395195 506.84146
-30.526119 36.455711 7.4800663 434.82678
-29.924099 36.785736 7.709671 371.39999
-14.230568 36.75584 7.0723143 423.39999
-13.932012 36.778027 7.0293555 396
41.36412 36.840714 7.8660264 333
42.255791 36.941513 7.4134083 345.5
43.634083 36.385963 7.4357777 317.0625
44.481503 36.324856 7.2381902 310.81818
53.310753 36.83651 7.5075583 288
54.752014 36.6936 7.2337294 259.58823
55.376976 36.661678 7.4283037 223
56.736145 36.677971 7.4813356 180.18919
57.395126 36.709576 7.4941235 156.63087
61.908459 36.36364 7.7111335 278
62.498009 36.456436 7.5458813 269.39536
63.150581 36.196098 7.3699188 226.89999
64.783325 36.373154 7.3596392 270.39999
65.155624 36.318916 7.6015997 281.375
66.337746 36.685631 7.3088465 280
72.455833 36.85516 7.566689 294
73.626152 36.580242 7.5359135 298
74.468765 36.243084 7.5868745 313.33334
-92.136215 37.322121 7.190165 471
-91.953262 37.633064 7.1695132 471
-57.050678 37.804329 7.0118098 485.5
-56.308769 37.751587 7.5758634 476.33334
-55.360516 37.553127 7.3774848 494.88269
-52.714512 35.891514 7.0980921 497.26529
-53.516762 37.490292 7.5228763 488.48352
-52.893154 37.803806 7.4487171 475.23077
-46.336098 31.17655 6.7681861 306.29761
-43.801102 28.132063 6.3929024 401.83704
-34.10989 37.992737 7.2043614 454
-33.351501 37.422569 7.3171906 457.20001
-32.363018 37.52494 7.4063478 481.70001
-31.461929 37.358959 7.4509773 513.91669
-30.436291 37.432087 7.4028196 479.39655
-29.720181 37.589737 7.5085449 412.04031
-14.231907 37.364643 7.1113553 462.44446
-13.779345 37.705379 7.1949387 465.46667
39.763069 37.82822 7.8093367 332.39999
40.730556 37.555367 7.6891327 332.34482
41.538567 37.475208 7.4299273 332.73172
42.180271 37.287468 7.3768435 338.11539
52.935421 37.569202 7.4274402 291.57144
53.686676 37.629044 7.4691801 229.312
54.556297 37.535259 7.4427733 160.48604
55.415592 37.506001 7.3617358 155.27777
56.721016 37.510006 7.4766383 186.43333
57.471851 37.446644 7.444283 153.33588
58.340603 37.770523 7.6289234 195.41176
59.491608 37.720943 7.9542656 270.75
62.64513 37.566917 7.4518209 268.18182
63.386887 37.601406 7.3100986 262.16666
64.561684 37.632587 7.5193391 184.39999
65.444489 37.511581 7.617281 263.5
66.069084 37.02874 7.4471016 265
70.781952 37.805218 7.6206336 271.77777
71.246964 37.553741 7.7218018 284.20001
72.026955 37.468407 7.55407 332
-94.460121 38.774033 7.3821812 471
-60.732063 38.508163 7.7922173 454
-59.451984 38.895004 7.7772079 468.33334
-58.395672 38.822475 7.527698 488.42856
-57.366093 38.700363 7.4010677 518.0769
-56.483181 38.424934 7.6025538 505.23914
-54.692051 38.043034 7.535284 499.6102
-39.923435 26.088411 4.6376672 329.05847
-53.457226 38.518639 7.4753523 508.16049
-52.631203 38.449959 7.3542676 477.71796
-49.736115 38.053471 7.5060968 14
-33.706673 38.017311 7.3931069 455
-32.939644 38.182251 7.8286982 503
-31.182962 38.493614 7.4890375 500.42856
-30.399567 38.632214 7.3913779 497.69812
-29.471001 38.417374 7.4824576 436.59888
-28.891918 38.794552 7.5512109 416.51852
-13.61832 38.35704 7.3404088 462.36365
37.849911 38.846542 7.5350237 354.75
38.585979 38.916855 7.591589 329.75
39.460335 38.483768 7.4397717 322.82608
40.301659 38.315861 7.1817164 327.5
41.042236 38.020908 7.005219 308
52.848598 38.619183 7.5801282 307.42856
53.54871 38.389103 7.4669023 253.09036
54.367191 38.427643 7.4763889 222.67741
55.44503 38.330074 7.5418806 189.14493
56.584476 38.451359 7.4577055 175.203
57.480671 38.445095 7.5194106 201.75
58.51321 38.592312 7.442019 170.61539
59.356422 38.436382 7.4816298 290.60001
62.582489 38.130009 7.3979378 277.79999
70.629601 38.397591 7.563817 271.375
-94.505951 39.05117 7.3827004 471
-61.612339 39.840424 7.2371893 472
-60.357349 39.219917 7.5808067 470
-59.650719 39.727005 7.7469301 514
-58.665703 39.406311 7.477581 522.29999
-57.570854 39.386955 7.5480194 513.29999
-56.614681 39.167969 7.4265733 502.25
-26.994413 25.136511 4.6016517 106.19073
-45.678181 34.355896 6.9145741 452.06912
-52.830532 39.328445 7.4437308 496.77777
-51.924633 39.33297 7.8292294 485
-31.309805 39.224438 7.3468266 457
-30.42692 39.402355 7.6101007 518.55554
-29.489548 39.393547 7.412395 469.6709
-28.671772 39.624905 7.4591422 399.44556
-13.213187 39.243263 7.6138339 460
-12.772254 39.382355 7.8141432 464
-11.437844 39.780716 7.402977 458
35.818069 39.826477 7.6354904 340.20001
36.562851 39.720749 7.6429663 347.20001
37.484734 39.45393 7.5657244 343.24677
38.255352 39.224926 7.5127888 348
39.030914 39.08152 7.0192366 322.5
51.625244 39.796551 7.3105903 286.57144
52.525368 39.484722 7.425106 294.48779
53.597542 39.52494 7.6309009 282.16483
54.415138 39.508457 7.5267549 224.34193
55.528431 39.431808 7.5350294 247.12766
56.663494 39.444862 7.4915915 186.87619
57.532516 39.581245 7.4578848 150.06976
58.425697 39.41367 7.4237294 169.42969
59.328575 39.536053 7.4911742 235.83333
60.29007 39.734211 7.4064269 264
64.758835 39.653526 7.2139177 257
65.583305 39.651718 7.2160015 260.88889
66.015984 39.044167 7.3184357 262
71.973145 39.625317 7.1150231 160
-60.494583 40.491283 7.8416424 525.5
-59.882309 40.06599 7.5777106 527
-58.358154 40.220222 7.9025259 517
-57.881989 40.232449 7.1500711 517
-56.765209 31.478586 7.472156 170
-31.403408 40.026306 7.1850252 498
-30.135168 40.152843 7.6030197 534
-29.359781 40.466702 7.3929791 491.48486
-28.390566 40.470703 7.4242277 427.10526
-27.88694 40.777401 7.4290414 451.85184
-12.527946 40.504486 7.1270881 461.77777
-11.782081 40.571812 7.7325358 469.14285
-10.954445 40.615768 7.6583929 458
34.805595 40.67144 7.7535901 341.33334
35.499603 40.485222 7.5193949 335.54999
36.472775 40.189739 7.3804765 336.07144
37.069374 40.077499 7.3522916 323
51.789627 40.320797 7.219142 290.30768
52.519604 40.549023 7.406323 296.11493
53.605274 40.461796 7.5229402 274.61539
54.350468 40.382889 7.5305157 257.19672
55.377583 40.549789 7.4745369 274.5614
56.558582 40.520893 7.3739953 228.11842
57.509129 40.237148 7.4429746 186.18867
58.684834 40.277939 7.5446606 196.54167
59.253185 40.459164 7.3959517 182.78999
60.281853 40.561726 7.3064542 280.33334
62.678776 40.551956 7.2755713 267.5
63.229397 40.597317 7.0896382 251.66667
64.280121 40.777176 7.8235402 372
65.409752 40.522324 7.4066172 254.5
66.757698 40.335159 7.0729232 258
-65.06736 41.937664 7.3620887 466
-63.820538 41.960205 7.7050548 513
-62.775696 41.811897 7.6518006 512.20001
-61.858551 41.10284 7.8507905 527
-29.205032 41.501083 7.4966698 515.11768
-28.502632 41.434086 7.4331741 472.97894
-27.677088 41.567944 7.4254737 407.79517
-12.061648 41.036751 7.2221022 464
-11.762416 41.635983 7.4419742 462.16666
31.895105 41.875874 7.4458175 356
32.620346 41.687294 7.6189742 346.04999
33.473999 41.557899 7.3516912 351.71832
34.382759 41.343075 7.4098105 352.66666
52.641808 41.484047 7.5298476 272.84314
53.383625 41.447388 7.5302777 273.76086
54.508514 41.539375 7.5106969 294.39795
55.555946 41.432484 7.4394617 232.04465
56.529686 41.498749 7.3806748 212.72185
57.502949 41.590595 7.3986411 241.06061
58.600014 41.530552 7.493856 252.5
59.551346 41.441719 7.5689096 249.58537
60.352741 41.571125 7.5246348 231.5238
61.463421 41.249981 7.5431089 262.42856
63.457375 41.203876 7.6456208 299.60001
64.487526 41.486919 7.6176419 369.33334
65.308701 41.622868 7.3970485 335.63635
72.520126 41.795242 7.41608 252
-67.011864 42.755264 7.0324755 479
-65.45845 42.629982 7.6444325 490.79999
-64.642021 42.592304 7.5359511 490.28888
-63.961002 42.741131 7.1070991 520.33331
-62.386185 42.322906 7.7888665 514
-28.478188 42.281788 7.5144138 500.75
-27.318508 42.527203 7.5467954 412.40475
-26.816906 42.775425 7.6731205 458.94736
-11.081531 42.7952 7.7603092 465.83334
-10.766851 42.908978 7.3960137 467.28571
-9.9271011 42.507042 7.2680426 458
-8.8922625 42.506378 7.1995144 457
29.77496 42.967396 7.5933709 363
30.737532 42.844845 7.4519472 342.85715
31.609262 42.479374 7.4108405 343.07693
32.406902 42.212231 7.2036138 347.25
33.079323 42.025063 7.107635 332
52.848755 42.304188 7.6658435 291.75
53.480324 42.417747 7.5391746 302.81146
54.451992 42.53492 7.5443258 316.00839
55.519867 42.518078 7.4139833 302.10938
56.467983 42.628918 7.3975949 235.46896
57.524216 42.570171 7.4701648 176.16063
58.396858 42.345913 7.4723916 202.8
59.259083 42.301659 7.6844788 264.39999
60.285934 42.330215 7.7137666 190.58333
63.160748 42.573158 7.1691828 245.5
64.64859 42.451721 7.4867072 353.04999
65.276474 42.522022 7.5183244 352.0625
-68.608612 43.886478 7.0212507 492
-67.5336 43.527744 7.5259848 491.25
-66.388504 43.588062 7.5552754 495.75
-65.541634 43.449329 7.4829917 492
-64.439468 43.531441 7.5789976 493.96362
-63.60281 43.503761 7.5464587 499
-62.687317 43.385532 7.5085492 487.95834
-30.542824 43.765102 7.1750126 450.5
-29.848083 43.897232 7.3175421 462
-28.168234 43.498898 7.3032393 493.66666
-27.422516 43.492771 7.5317121 451.55856
-26.690655 43.538914 7.5324516 428.43677
-10.69102 43.540958 7.7023058 465.38461
-9.7501755 43.104424 7.4183712 458
-8.7559891 43.107239 7.357976 457
27.887369 43.926086 7.6277933 351.75
28.593208 43.685917 7.6100421 360
29.579437 43.467453 7.5437951 352.45834
30.327364 43.29739 7.4827633 355.90909
31.158264 43.055344 7.1190419 342
52.88884 43.584492 7.6255412 181.91667
53.404102 43.429813 7.532918 231.05714
54.63097 43.636841 7.457365 250.3494
55.447392 43.563725 7.4631214 176.78838
56.422626 43.26429 7.4822116 182.3046
57.237118 43.236431 7.287322 166.11765
60.526112 43.256851 7.199892 80
64.999153 43.190895 7.9313831 354
-67.434143 44.44342 7.5396142 494.83334
-66.694069 44.246193 7.2874398 489.75
-64.38205 44.256271 7.6624441 489.55554
-63.700203 44.428471 7.5457954 491.5
-62.563656 44.289646 7.6437726 487.5
-30.316883 44.159851 7.2323799 450.5
-27.303255 44.397591 7.4670749 494.06897
-26.385576 44.562595 7.403656 415.70001
-25.891987 44.879524 7.4861307 427.76923
-11.120218 44.061234 7.0304642 462
-10.414507 44.181389 7.5011072 466.70001
-9.9192085 44.421177 7.5215015 451
25.737143 44.920994 7.4856133 368
26.406652 44.906006 7.7206612 358
27.70624 44.453022 7.3135543 349
28.358887 44.22823 7.325068 348.60001
29.194284 44.106518 7.1293187 339
51.555065 44.820126 7.3141584 265.45456
52.724533 44.810799 7.4288087 203.33636
53.477318 44.590534 7.4486966 167.81049
54.362278 44.238102 7.4435878 156.18497
55.394508 44.202606 7.1746645 151.3
56.485569 44.462959 7.3731184 307.35715
57.518284 44.447559 7.1592503 256.5
58.513451 44.654953 7.3168135 272.63635
-27.164959 45.431271 7.5496731 485.36365
-26.333433 45.416763 7.4331083 438.12308
-25.763023 45.532528 7.4518909 417.80435
-10.053282 45.169743 7.2542577 459
-9.9847736 45.271111 7.3345695 464
-8.1047449 45.807648 7.0503054 458
-6.9416027 45.917152 7.5503836 456
24.649578 45.799908 7.4076104 321.77777
25.463636 45.360035 7.6100678 351.93616
26.369482 45.211006 7.4929552 360.15384
27.312412 45.096542 7.2636118 343
48.860786 45.917912 7.1867208 307.5
49.60078 45.810684 7.220108 295.90909
50.756947 45.75222 7.3356466 203.42188
51.55991 45.374733 7.4498682 177.61345
52.379002 45.207924 7.4530535 145.45062
53.120758 45.104946 7.3626761 89
57.685349 45.211071 7.5280242 268.66666
58.543415 45.153858 7.6108027 267
-27.26586 46.613689 7.4031887 514.66669
-26.340509 46.420956 7.5520277 488.63379
-25.502993 46.485821 7.4726534 413.92682
-24.927374 46.862217 7.4106503 423
-9.3784237 46.44569 7.4594207 465.89999
-8.5900412 46.605785 7.4652238 454.125
-7.3743095 46.395824 7.2971907 456
-6.6324043 46.59108 7.4601445 456.5
21.618618 46.928226 7.4513621 368
22.549295 46.859505 7.5136027 310.89285
23.405329 46.480808 7.3630271 269.97223
24.361076 46.249336 7.1386623 290.33334
47.750595 46.840706 7.1846662 306.26666
48.535152 46.532078 7.118444 295.7193
49.495602 46.446945 7.3086667 231.7551
50.331974 46.179157 7.408051 188
51.786983 46.926727 7.3330498 197
-26.207983 47.108833 7.3826089 506.85715
-25.408176 47.383686 7.4699049 438.45999
-24.720646 47.569881 7.4971876 420.78741
-23.678642 47.680046 7.4181089 454.5
-9.2165318 47.274979 7.470366 465
-8.2927427 47.363262 7.6378198 456.57144
-6.221199 47.351562 7.9130263 456
20.518545 47.853416 7.5131001 272.07999
21.65394 47.350426 7.5471654 312.32001
22.339798 47.166088 7.4519539 299.90698
23.20435 47.069141 7.1738043 367.79999
45.759609 47.724953 7.3862429 307
46.471241 47.544277 7.2734904 302.61905
47.369244 47.32243 7.2062912 299.5
48.4561 47.135666 7.1367998 203
51.902153 47.186119 7.704412 194
52.096832 47.501911 7.6846542 191.83333
58.696083 47.939613 7.205174 114.25
59.328705 47.622707 7.1965613 125.66666
-25.381851 48.611069 7.5821548 484.45651
-24.547285 48.428471 7.3891578 432.17822
-23.782909 48.31517 7.6221366 466
-22.815823 48.522125 7.5366182 450
-8.060257 48.696438 7.8485169 465
-7.5915961 48.746849 7.5888824 456.28571
-6.544291 48.269527 7.6050467 457
-5.5513964 48.665333 7.5341568 456.25
17.839989 48.907761 7.688261 370
18.760069 48.770729 7.487895 307.60001
19.42947 48.509388 7.4476867 288.90323
20.272015 48.165737 7.397296 271
45.835583 48.327278 7.297863 309.85715
46.195244 48.64851 7.3138375 305.32144
58.150841 48.152565 7.3509283 81.75
60.169735 48.992123 7.2033434 108
-82.5093 49.246166 7.6946335 464
-81.714516 49.859543 7.6129055 466
-76.216705 49.78706 7.4645352 503.66666
-75.551491 49.581657 7.3827395 489.375
-25.174816 49.319946 7.4687366 492.07693
-24.47241 49.474903 7.5007544 461.59259
-23.647362 49.609566 7.2510247 439.08511
-22.809752 49.857498 7.0959573 453
-8.1538715 49.5033 7.6631179 465.39999
-7.477407 49.530598 7.3608537 456.04761
-6.6607013 49.547455 7.8884544 455
-5.4090495 49.45013 7.4516582 455.66666
16.507572 49.818981 7.761651 258.22223
17.706657 49.630695 7.2965274 268.21054
18.32235 49.382717 7.3534489 267.80646
45.974941 49.022888 7.5192065 319
46.529453 49.511723 7.3821273 309.27869
54.770733 49.895958 7.231575 80.92308
59.438538 49.744179 7.1098824 147.25
60.583447 49.229404 7.2540498 109.45
-78.580086 50.834846 7.3738103 504.25
-77.78183 50.675442 7.8662982 478.33334
-75.450417 50.397923 7.4406266 490
-24.402719 50.529446 7.4926033 465.94736
-23.40167 50.41045 7.4371586 461.66666
-22.618286 50.510452 7.3419003 456.45834
-21.763634 50.442955 7.5741034 450
-7.3220387 50.144199 7.4129891 464.75
-6.7528434 50.644974 7.2727528 446.75
15.498952 50.520145 7.5080385 269.69232
16.470892 50.516563 7.2640357 260.44681
17.366486 50.239017 7.2586694 262.10001
18.042622 50.029251 7.1035647 251.5
38.320244 50.964497 7.2410135 320
44.937359 50.943871 7.2801247 303
46.82098 50.145935 7.4813805 308.17648
47.217796 50.559093 7.4206452 301.45651
59.236328 50.001968 7.252955 129
-78.51001 51.212204 7.380384 506.44446
-77.426193 51.395515 7.5730124 486.75
-75.627548 51.407326 7.4410176 517.5
-24.155849 51.245773 7.5143528 483.61539
-23.609245 51.472496 7.5947146 482.41025
-22.700348 51.460304 7.4294457 453.71429
-21.58967 51.279572 7.4178057 448
-6.183548 51.601521 7.5100713 452
-5.7919064 51.956802 7.6836586 450.33334
-4.616292 51.837013 7.1240134 456.5
-3.5711975 51.80899 7.4131665 456.5
12.664574 51.875473 7.375463 271.2963
13.269076 51.622459 7.3903685 265.39999
14.689167 51.091526 7.5918198 242.66667
36.8936 51.709179 7.0229683 323
37.552418 51.406792 7.1425323 322
38.316162 51.153271 7.1273637 319.33334
43.98344 51.830654 7.147747 217
44.657284 51.461788 7.130281 259.33334
47.557014 51.202213 7.3299274 296.11111
55.377766 51.810497 7.2666211 124.28571
-81.084946 52.334572 7.5404196 511
-80.653679 52.381489 7.6842332 503.33334
-79.681046 52.41151 7.5582881 483.5
-77.690773 52.610413 7.5828037 503
-24.062599 52.644958 7.2142315 454
-23.42029 52.488823 7.6902838 470.89999
-22.327271 52.403252 7.5146103 451.96155
-21.76157 52.681267 7.5614738 457.5
-20.68317 52.718056 7.492146 448.625
-6.3850021 52.430168 7.2444925 453.11111
-5.6105413 52.553005 7.5600858 448.59259
-4.6838455 52.307056 7.1598897 458
-3.4300852 52.694977 7.3022223 456
-2.9484825 52.911865 7.964416 456
10.725327 52.881668 7.7139874 276.16666
11.621943 52.519772 7.387814 272.25372
12.405929 52.069645 7.241044 276.8421
34.842529 52.984711 7.1139164 247
35.317554 52.763973 7.098824 258.33334
36.231815 52.205425 7.0496955 299.33334
40.386616 52.092937 7.1038995 221
41.540627 52.468685 7.1572094 220.18182
42.524414 52.608788 7.1490736 219.875
43.333092 52.216309 7.0386367 219.5
44.669983 52.057465 7.292038 216.33333
54.580662 52.351372 7.1215549 127.46154
55.102192 52.065838 7.1761465 126.55556
-85.8116 53.571346 7.0619125 478.5
-83.190521 53.397945 7.5102768 500
-82.397232 53.950134 7.0959473 495
-81.764771 53.921879 7.5847025 484
-80.36042 53.092796 7.4470787 495.5
-79.9422 53.194557 7.717711 495
-23.296341 53.325974 7.3705683 466.88889
-22.612471 53.54409 7.5115972 482.96774
-21.619194 53.568386 7.570878 454.02325
-20.2083 53.477783 7.4591155 450.33334
-6.6923766 53.344112 7.4604282 460.33334
-5.2952929 53.380936 7.507947 446.61905
-4.9350462 53.743332 7.6958241 453.5
-3.2333012 53.794945 7.556551 455
-2.3930988 53.647655 7.4449892 457
8.8910551 53.805 7.337285 274.59375
9.432579 53.484398 7.5168862 276.40625
10.215844 53.122402 7.5354419 279.79999
32.906742 53.945297 7.3884239 246
33.449612 53.68169 7.3547893 250.32608
34.404701 53.217865 7.234653 252.89655
-85.659943 54.69899 7.3641005 497.5
-82.51564 54.275379 7.3830805 494.5
-22.40012 54.356285 7.5370946 484.5
-21.321215 54.555172 7.4459662 440.71155
-20.733633 54.76273 7.5298419 452.58334
-19.717993 54.590759 7.4979272 449
-5.1657376 54.654541 7.5592194 458.60001
-4.5885224 54.598125 7.6693997 446.79999
-3.3999462 54.628361 7.5834932 458
-2.9854107 54.348236 7.6661448 455
-1.831831 54.705666 7.6499114 457
6.6551218 54.925041 7.749671 270
7.5186114 54.68364 7.5212569 282
8.2260342 54.209854 7.4973321 272.98572
30.874683 54.936111 7.5249791 253.53334
31.488131 54.674137 7.4340744 254.93671
32.409824 54.231228 7.4275584 249.92857
33.035961 54.023521 7.0510559 251
46.752613 54.750908 7.0672655 259
49.238579 54.736012 7.0668955 274.5
-84.435181 55.46302 7.500536 485.75
-22.22769 55.510204 7.4314132 456.39999
-21.435656 55.594822 7.3559852 457.54166
-20.644335 55.310341 7.5550709 450.24561
-19.269205 55.15926 7.5978684 452
-18.753483 55.657009 7.648562 455
-5.2756934 55.574234 7.6324453 465.33334
-4.4286246 55.420986 7.498064 443.82053
-3.7230492 55.426697 7.8815804 454
-2.436615 55.422157 7.8780661 455
-1.8500462 55.352909 7.0438948 456
4.6065087 55.984814 7.1864967 265
5.5341959 55.627235 7.5843134 273.45001
6.5003204 55.615269 7.5495334 284
7.3406506 55.227135 7.5314746 282.26828
28.819763 55.961338 7.7961421 250.25
29.492599 55.711609 7.4790468 251.97144
30.446671 55.224609 7.4251657 255.57971
46.861362 55.056324 7.1344314 260
47.171265 55.631458 7.2988639 260.79999
49.536423 55.469223 7.241796 269.7037
-21.347603 56.353367 7.301486 490.45456
-20.317547 56.61932 7.4594402 441.45651
-19.828115 56.952644 7.342073 452.70001
-18.618837 56.91148 7.3275928 449
-5.6176224 56.593903 7.9769111 458
-4.4292307 56.139 7.3286042 462.20001
-3.6882284 56.631874 7.5266681 439
2.5670502 56.85722 7.2785077 302.08334
4.5105653 56.139286 7.380342 259.5
5.6754847 56.131542 7.4160614 291.3913
26.817158 56.980381 7.7001019 257.5
27.531414 56.741039 7.4207444 255.24324
28.433064 56.277409 7.4415855 254.32204
29.022226 56.075314 7.1446271 249.75
47.606613 56.523155 7.4447846 261.64999
49.895683 56.198772 7.4814739 269.77777
50.165146 56.745327 7.4648871 268.55554
-21.208469 57.545666 7.3671379 457.20001
-20.23147 57.228001 7.3758297 442.61111
-19.582973 57.469582 7.4748888 446.10309
-18.221302 57.404369 7.4022326 449
-17.832878 57.522362 7.9377203 455
-4.0174503 57.093533 7.0950723 429
-3.2838161 57.518887 7.3674045 436
-2.7109818 57.914169 7.7416091 441
-0.25140572 57.749802 7.4496794 456
0.84112227 57.883995 7.6756296 295.63159
1.3130745 57.583817 7.5104847 287.75
2.087734 57.098164 7.3557792 302.33334
24.953293 57.946304 7.1510153 239.5
25.525265 57.762608 7.463778 258.15295
26.503801 57.264099 7.446805 255.5303
27.080809 57.054806 7.3902731 254.75
47.933731 57.175098 7.4508648 261.875
48.169373 57.560574 7.5117397 263
50.4006 57.484222 7.5463214 267.58823
-21.104149 58.236786 7.5219765 455.5
-20.354193 58.528412 7.4160337 468.03125
-19.419016 58.671329 7.4586253 405.64517
-18.920362 58.464455 7.8448129 456.20001
-17.579855 58.332726 7.6902452 450.5
-3.3498478 58.459522 7.380259 455.66666
-2.6618471 58.466011 7.566925 441.86957
-1.6433476 58.83202 7.5546126 312.8421
-0.29749909 58.345772 7.4774222 314.20001
0.6637044 58.019463 7.4264297 299.25
1.1840057 58.014549 7.4086428 253
22.956034 58.980675 7.8137197 254
23.568956 58.770599 7.4932785 263.01251
24.488714 58.301285 7.4442673 259.79544
25.06658 58.074471 7.2818508 260.5
48.602245 58.394382 7.6770244 263.09091
50.788757 58.42981 7.5745864 267.90909
51.164764 58.849861 7.2632346 267.25
-20.072632 59.485298 7.3876772 446.5
-19.259239 59.484818 7.5023413 392.5
-18.624348 59.542583 7.4949002 444.11627
-17.648621 59.604156 7.4573379 457.39999
-16.856771 59.707741 7.5641789 446
-3.1336656 59.718731 7.4448748 337.79999
-2.4096918 59.488392 7.522172 384.02151
-1.8339459 59.688839 7.2587686 421.16666
-0.11974144 59.456284 7.0840111 455
0.67352104 59.403664 7.7359738 456
21.53565 59.81263 7.4920053 266.54099
22.562817 59.268688 7.4598503 264.95239
23.133242 59.064171 7.2506833 262.66666
30.613461 59.988403 7.1780343 265
48.954918 59.008057 7.8284416 263
49.337189 59.706512 7.60848 263.20001
51.193596 59.149212 7.5340815 266.89999
-22.394583 60.848892 7.3858399 352.33334
-21.438173 60.347042 7.183362 351.71429
-20.551456 60.268429 7.2356801 350.57144
-19.40325 60.441868 7.5925703 419.56522
-18.429018 60.312595 7.4699078 423.23077
-4.047884 60.006783 7.0378923 458
-3.0786972 60.210659 7.1728005 465
-2.2193058 60.285786 7.3495431 448
-1.7057232 60.400204 7.5182152 450.33334
0.061782837 60.093449 7.190052 455
19.615601 60.790878 7.5391588 268.7294
20.511766 60.347885 7.4988217 265.76404
21.14485 60.059174 7.3635092 264.4375
33.214169 60.827942 7.0567851 277
