# .PCD v0.7 - Point Cloud Data file format
VERSION 0.7
FIELDS x y z intensity
SIZE 4 4 4 4
TYPE F F F F
COUNT 1 1 1 1
WIDTH 1212
HEIGHT 1
VIEWPOINT 0 0 0 1 0 0 0
POINTS 1212
DATA ascii
-42.145363 -42.547276 4.7741923 639.89331
-41.973766 -42.156483 4.8411441 653.5
-30.114109 -42.188313 4.4537997 566.40002
-29.542425 -42.290333 4.5064721 565.7757
-28.682943 -42.519527 4.5229053 594.27142
-21.293985 -42.781136 4.341269 893.38464
-20.526867 -42.677998 4.3887134 899.51514
-19.691893 -42.68317 4.5932016 797.04547
-4.1305695 -42.850994 4.5383983 902
-3.6769013 -42.698456 4.1682415 910.05884
-2.4321461 -42.570827 4.4433575 126.27273
15.559911 -42.441315 4.458262 158.21875
24.962204 -42.123703 4.6352639 105
25.540522 -42.405495 4.4602818 165.12581
26.296598 -42.367645 4.3737803 157.63158
27.207336 -42.693245 4.2912068 129.5
28.311192 -42.54208 4.2213626 152.86667
29.459219 -42.01535 4.7672181 159.39999
30.460785 -42.080757 4.8929143 155.66667
31.59235 -42.390484 4.8826437 151
-74.42099 -41.377003 4.9328461 1029
-73.210457 -41.325623 4.8515687 1025
-72.54039 -41.225182 4.7987275 1007.9722
-71.332222 -41.346577 4.6620188 1014.5432
-70.662659 -41.582436 4.5877585 1001.7206
-69.886223 -41.922131 4.9026742 1003.5
-67.449623 -41.365723 4.8268728 635
-54.281193 -41.502796 4.5758557 593.16669
-45.860703 -41.490829 4.5412664 602.56525
-43.52224 -41.242924 4.4752026 575.2027
-42.480293 -41.24757 4.61518 610.84497
-41.978962 -41.532303 4.7997603 644.84998
-30.114069 -41.55463 4.3981729 565.20001
-29.921524 -41.426746 4.4134583 584.69049
-28.508034 -41.484283 4.6077542 615.26965
-22.284624 -41.483109 4.2968011 898
-21.448221 -41.3134 4.3103151 904.125
-20.930815 -41.115204 4.4960814 897.5
-4.4762497 -41.625538 4.0262218 930
-2.3924677 -41.557632 4.4237108 124.45454
13.338067 -41.068329 4.8493633 181.5
14.400661 -41.059509 4.9836817 165
15.65633 -41.493721 4.4653053 153.67796
24.901804 -41.481468 4.758636 73.333336
25.48559 -41.531963 4.50594 128.57092
26.576445 -41.774769 4.4785595 168.49367
27.491734 -41.84634 4.4600344 161.88034
28.405125 -41.921631 4.6232486 160.05797
29.325317 -41.948544 4.6382465 159.83333
30.127821 -41.958439 4.665554 163
-74.025658 -40.895142 4.9114304 1025
-73.351677 -40.820118 4.8216991 1024.0435
-72.318199 -40.639652 4.7119427 1012.75
-71.460533 -40.668491 4.5898118 999.52136
-70.91066 -40.763969 4.6047158 987.28571
-54.192318 -40.5718 4.5805879 591.30432
-52.029419 -40.097145 4.4954276 587.5
-51.768959 -40.130276 4.6302238 581.88892
-50.110638 -40.258606 4.5911441 1015.881
-49.94252 -40.501049 4.4716058 1021.8666
-45.460869 -40.355984 4.4815364 603.04413
-44.431259 -40.266834 4.4954042 607.89471
-43.803474 -40.300545 4.4132957 618.57892
-42.541626 -40.464756 4.5096669 605.2074
-33.031841 -40.734173 4.6828976 1007
-32.649464 -40.406967 4.5834641 982.33331
-30.079006 -40.610069 4.4607973 562.3125
-29.849356 -40.462898 4.338706 583.35852
-28.432497 -40.510891 4.564611 623.28918
-2.33529 -40.560364 4.356967 124.33334
3.578109 -40.505486 4.5273933 122.875
15.69168 -40.50774 4.4543405 153.20248
25.696144 -40.592472 4.4751911 130.69684
26.084112 -40.305733 4.3054824 123.23711
27.287834 -40.471619 4.8473296 58
-54.087429 -39.502144 4.7108755 588.14288
-51.107647 -39.278198 4.2554936 606.66669
-50.170761 -39.720581 4.519587 1018.0211
-49.797359 -39.56879 4.4979997 1021.3953
-47.295158 -39.536255 4.347548 608.33331
-46.399937 -39.668007 4.5680079 610.32727
-45.605118 -39.928211 4.6287441 612.06451
-44.532242 -39.940666 4.6279969 609.33331
-43.357578 -39.770676 4.5552912 623.87262
-42.664494 -39.89835 4.5449395 627.16809
-32.383244 -39.357391 4.8120933 1025.8572
-31.464512 -39.619568 4.2637544 902.05554
-30.476603 -39.497868 4.4735045 825.93335
-29.76671 -39.44899 4.3459802 599.74628
-28.337513 -39.513447 4.5365238 623.57318
-23.387932 -39.252979 4.2271032 900.11108
-22.56316 -39.37875 4.6576266 722.88892
-20.70396 -39.45797 4.4708056 900
-2.3076859 -39.582706 4.5067925 127.25
15.699995 -39.451939 4.479949 146.38518
25.821062 -39.381649 4.4781356 142.99454
26.091326 -39.488335 4.3066335 129.39073
27.375732 -39.592743 4.7802706 58
-77.415825 -38.438824 4.5989866 980
-73.17733 -38.10741 4.7601523 1031.3334
-66.804596 -38.186855 4.7389731 631.88892
-59.337898 -38.294266 4.4435935 656.875
-54.635117 -38.041145 4.9426794 589
-53.990379 -38.937584 4.0159197 580
-51.25705 -38.398079 4.2937417 606
-50.804371 -38.137108 4.4991622 1022.8958
-47.417049 -38.459618 4.3654799 606.6842
-46.529202 -38.449745 4.7714739 607.70001
-45.961544 -38.632866 4.9786363 611
-43.190647 -38.203041 4.589467 622.0155
-42.993034 -38.215416 4.8491755 651
-29.678944 -38.666855 4.2374954 593.53491
-28.242485 -38.522526 4.4109039 635.6087
-26.16156 -38.012207 4.0600824 622
-25.40402 -38.056469 4.1164589 620.66669
-24.684475 -38.026199 4.3027792 619.5
-23.417786 -38.68314 4.3689098 802.66669
-22.338068 -38.901192 4.240953 901.5
-2.2630186 -38.404552 4.600255 128.38461
12.475571 -38.395615 4.1666889 117.125
15.781215 -38.625862 4.4801302 165.39496
25.832142 -38.523567 4.505928 141.63725
26.140009 -38.473843 4.3143601 135.97766
-73.249763 -37.401775 4.7796097 1030.8889
-72.888374 -37.469212 4.7902999 1031.7333
-67.049362 -37.507462 4.8022528 640.79999
-66.841019 -37.682732 4.6243682 638
-54.565205 -37.472321 4.9420505 587
-51.377552 -37.244274 4.5361867 993.08569
-50.868874 -37.953484 4.6306257 1019.2
-47.540588 -37.630825 4.4204259 605
-46.512833 -37.850449 4.1164393 605.33331
-43.128967 -37.200314 4.479425 600.56976
-42.906754 -37.102543 4.5995398 637.18365
-28.138573 -37.489754 4.4606371 634.96521
-27.399139 -37.675434 4.1534972 792.41174
-26.529249 -37.867569 4.3195128 621.96155
-25.464464 -37.897404 4.3830938 620.59998
-24.663065 -37.831829 4.4966044 620
-6.9001312 -37.036457 4.6152778 666
-2.2334509 -37.514622 4.6608763 127.13333
0.71338654 -37.299351 4.9910688 135
15.815755 -37.518078 4.4290071 151.71324
16.016783 -37.161549 4.7076631 151.28572
25.881342 -37.633568 4.4634399 146.94315
26.162094 -37.509117 4.3467646 128.68141
27.351818 -37.43325 4.6044235 58
-83.456558 -36.089176 4.7679605 981
-78.403259 -36.640263 4.0718055 949.83331
-74.08477 -36.652431 4.851758 1033
-73.820808 -36.605423 4.7391181 1029.875
-54.521362 -36.916992 4.9465694 587
-52.048904 -36.06813 4.5314445 1004.5
-51.727451 -36.529766 4.4993925 1015.1786
-49.425499 -36.284237 4.8061638 603
-48.048576 -36.037682 4.5713921 602
-47.311829 -36.121288 4.5581937 603.36365
-46.418888 -36.156456 4.5118561 602.125
-45.583866 -36.249008 4.4798503 601.16132
-44.492748 -36.385509 4.5061326 598.67389
-43.300701 -36.596245 4.3597727 610.50983
-42.897842 -36.485241 4.5532379 623.32172
-28.064581 -36.598007 4.5169697 628.62067
-27.960251 -36.36026 4.4669223 634.02704
-25.502853 -36.234924 4.5390458 1015
-24.44084 -36.453121 4.1203194 901.35712
-23.474779 -36.547344 4.5683713 769.15387
-2.1835384 -36.637135 4.5458965 126
15.865403 -36.486229 4.3825569 160.61073
16.049637 -36.463276 4.7076879 146.45454
25.837635 -36.414955 4.4517398 136.92574
26.264246 -36.706478 4.4330945 143.27678
27.194641 -36.469227 4.5684481 77.75
28.560011 -36.714809 4.5822177 104.33334
29.43457 -36.698059 4.8055725 114.9
30.222504 -36.817303 4.9556923 120
31.194534 -36.81242 4.88869 115
47.642933 -36.322693 4.7580805 758
48.164078 -36.425232 4.5759807 758.5
-83.478851 -35.984459 4.8026099 979.5
-75.251671 -35.386971 4.3415093 991.75
-74.905518 -35.478817 4.1879315 983.79999
-73.88076 -35.995632 4.6620445 1034
-52.10841 -35.703156 4.594768 1010.6304
-51.95219 -35.764889 4.4709735 1022.2553
-49.46077 -35.873539 4.8342767 602.75
-48.632896 -35.921272 4.6362329 603.55554
-47.653923 -35.988201 4.8881121 604.20001
-43.066536 -35.485947 4.2124023 587.27777
-42.875118 -35.597523 4.499248 616.84454
-28.065001 -35.550438 4.5053034 609.76471
-27.907324 -35.491116 4.50458 630.47369
-25.281363 -35.509285 4.2095327 937.66669
-24.354364 -35.406593 4.4780188 824.85486
-23.774235 -35.679535 4.5516853 830.18518
-22.531103 -35.72401 4.2641087 900
-2.1136587 -35.44751 4.627893 129.16667
13.374013 -35.144745 4.9165988 171
14.916241 -35.165642 4.9143586 163
15.946095 -35.6231 4.5054359 168.2619
16.034279 -35.449024 4.4289103 159.28206
25.794582 -35.45084 4.4610548 133.79753
26.626892 -35.327675 4.487493 101.74627
27.225594 -35.39817 4.3776393 106.13636
-79.930382 -34.069241 4.83672 1028
-75.300766 -34.45689 4.5749459 990.71429
-66.711708 -34.433971 4.6932445 627.5
-52.416042 -34.845318 4.541276 1022.8421
-43.06237 -34.70837 4.426898 571.84613
-42.864395 -34.530338 4.4835649 613.34467
-33.297344 -34.232838 4.939333 665
-32.954121 -34.693455 4.9519358 665
-28.349396 -34.398071 4.4675798 540.20001
-27.801609 -34.496674 4.4925447 627.73584
-25.518751 -34.28867 4.0949712 900.28571
-24.83913 -34.19381 4.7092752 909.75
-23.920681 -34.975765 4.1587696 897
-18.147039 -34.643082 4.3061595 665
-2.0638051 -34.509216 4.7219286 131
-1.9849987 -34.116257 4.7151599 139
0.82303375 -34.547794 4.9786029 131.14285
1.6044965 -34.603577 4.8518963 137.75
3.8609886 -34.547127 4.3805051 125
4.0418792 -34.69936 4.4849806 131.72728
15.951163 -34.568302 4.2855949 182
16.106112 -34.479504 4.4501915 160.896
17.328712 -34.190365 4.3813572 97.012344
25.905102 -34.724049 4.4891562 116.17588
26.30847 -34.460728 4.3353653 110.65447
27.217999 -34.374405 4.1558867 117.92
-80.291336 -33.094067 4.4227762 983.75
-79.901886 -33.665237 4.5431104 991.77777
-76.109161 -33.970207 4.3906298 1018
-75.529114 -33.518475 4.2738914 1018
-66.644333 -33.514721 4.8778501 644.75
-53.534698 -33.316467 4.459095 1018.5405
-43.009514 -33.183132 4.430398 568
-42.671787 -33.317715 4.4973617 602.87311
-36.081612 -33.058022 4.9268508 1014
-35.869179 -33.470074 4.9709301 1014
-33.831467 -33.257324 4.8992872 665
-28.254757 -33.464996 4.421258 541
-27.697063 -33.513916 4.5004539 626.9068
-26.612206 -33.238125 4.2597127 1017.6667
-25.540541 -33.542015 4.409246 717.15387
-24.758024 -33.955597 4.2781529 902.66669
-18.250063 -33.761253 4.2421746 665
-8.6520519 -33.093281 4.9973645 916
-2.0129871 -33.610275 4.686142 128
-1.9680361 -33.375324 4.7190318 135.33333
15.865949 -33.326855 4.4937544 56.799999
16.12818 -33.478683 4.5688977 157.0099
17.350975 -33.509693 4.4007187 92.036583
25.929079 -33.469925 4.6379571 105.35185
26.265848 -33.358635 4.3805757 124.16901
27.287163 -33.687061 4.2627487 111.45614
45.562412 -33.668602 4.9411602 748
-80.77182 -32.103798 4.1760874 931.375
-79.268471 -32.013321 4.9808002 990
-78.352158 -32.185883 4.5167203 996.75
-76.167358 -32.589088 4.3918629 1025
-75.608215 -32.756985 4.2095022 1021.1429
-54.088974 -32.224888 4.5028691 1013.7414
-53.830177 -32.679661 4.4714618 1017.4808
-48.425941 -32.053516 4.0125294 605
-47.153809 -32.501465 4.9914799 1032
-45.341499 -32.037727 4.6066298 638.22729
-44.532223 -32.079277 4.6216402 638.04688
-43.585556 -32.179409 4.5630054 635.61365
-42.368816 -32.514782 4.4894152 613.67297
-41.625061 -32.936325 4.2925243 572.16669
-36.039303 -32.856277 4.4285975 959.5
-35.427013 -32.601147 4.5018859 914.875
-34.645527 -32.461628 4.5225744 880.25
-28.219702 -32.338085 4.4923244 540.85712
-27.609642 -32.482597 4.4597731 622.67798
-26.441755 -32.249905 4.3287382 739.91669
-25.777245 -32.329041 4.4131918 915.5
-24.641529 -32.225464 4.4215193 751.25
-9.1999207 -32.330383 4.8379765 871.36365
-8.9174576 -32.712982 4.9733348 915.59998
-1.9184763 -32.364166 4.6717043 135.125
3.663641 -32.390358 4.7422171 140
15.807203 -32.427887 4.802433 59
16.169931 -32.487846 4.6226816 152.13483
17.396627 -32.493713 4.389174 89.519234
25.953007 -32.448132 4.6207094 90.807693
26.343525 -32.510532 4.3848362 134.28102
27.246353 -32.62899 4.1128459 125.82609
44.754539 -32.462349 4.8771968 748
-80.892807 -31.92149 4.1118593 940.5
-79.298462 -31.495428 4.7701483 975.42108
-78.457497 -31.413391 4.3958468 983.72223
-77.50444 -31.279135 4.3844023 999.25
-76.678886 -31.401484 4.5021443 1014.7273
-70.252151 -31.317383 4.1603422 1015
-69.364952 -31.161711 4.1637959 1021.5
-68.428719 -31.420191 4.3414488 1023.5441
-67.94915 -31.251472 4.0961576 1026.5
-58.322021 -31.178074 4.3067598 638.15002
-57.918404 -31.434649 4.617918 662
-54.423214 -31.512508 4.452992 1013.3653
-53.385715 -31.190214 4.5334864 634.73077
-52.582092 -31.278578 4.444365 634.4054
-51.809128 -31.354439 4.6594563 643.77777
-50.241909 -31.355341 4.4454064 630.78381
-49.479374 -31.603119 4.4647727 634.8222
-48.45512 -31.69565 4.4072642 634.25397
-47.487339 -31.777527 4.3223834 632.48334
-46.485558 -31.871147 4.4680042 631.61017
-45.631058 -31.935499 4.5047989 625.94739
-44.663643 -31.929342 4.5623446 635
-43.310265 -31.744337 4.5226874 626.84613
-42.413212 -31.527063 4.4921679 619.58154
-34.16095 -31.951687 4.8171539 665
-33.950844 -31.94117 4.7996273 665
-27.501322 -31.473446 4.4770355 639.76923
-26.455868 -31.750549 4.5116491 779.38806
-25.747398 -31.934282 4.5768242 653.5
-24.926571 -31.994228 4.6266918 601
-1.8557553 -31.386349 4.6410656 137.77777
0.84531593 -31.269421 4.5781713 140
1.0811678 -31.32675 4.793921 131.66667
3.7514639 -31.072891 4.7920294 139
7.1947327 -31.677505 4.81359 140
15.882998 -31.4303 4.7632737 66
16.198196 -31.521191 4.6287618 147.53424
17.439028 -31.503885 4.3754582 89.147926
25.909439 -31.414156 4.6593108 106
26.331442 -31.659697 4.4244041 125.97551
27.451023 -31.550501 4.2823329 124.54717
28.537367 -31.458324 4.4270835 140.16667
29.269318 -31.334471 4.5051885 139.63637
30.667173 -31.050817 4.6336045 139.66667
-79.074493 -30.964367 4.4781737 834.5
-78.418526 -30.363369 4.3890433 935.95239
-77.599258 -30.493637 4.6057262 990.79486
-76.711601 -30.716042 4.8189592 999.09088
-71.16787 -30.127953 4.4578242 1009.4545
-70.434326 -30.235704 4.3950529 1004.8979
-69.480576 -30.400644 4.4353681 1016.2143
-68.361343 -30.490051 4.4058208 1010.2463
-67.7715 -30.560097 4.2308192 1001.4949
-66.060837 -30.422531 4.7203989 626.90002
-65.997063 -30.134048 4.8005905 629.5
-58.26757 -30.419151 4.3195138 640
-57.884571 -30.300934 4.6560574 662
-55.090797 -30.203947 4.4732852 1009.2391
-54.825909 -30.66992 4.4474025 1012.5361
-50.509808 -30.708628 4.5207777 630.73584
-46.549484 -30.009129 4.001914 1008
-42.418854 -30.248877 4.4571066 621.59186
-34.371571 -30.560123 4.7190924 665
-27.418999 -30.50103 4.4644523 622.86078
-9.7868166 -30.799049 4.9504395 910
-1.8172781 -30.580246 4.6485157 137.5
15.908216 -30.413837 4.8242617 74.599998
16.41498 -30.330088 4.4736457 95.081078
17.369373 -30.512636 4.3902702 82.333336
25.921663 -30.521986 4.4697485 63.775509
26.233807 -30.479944 4.4556093 129.90588
27.330942 -30.894772 4.4136062 139.67308
28.454273 -30.944201 4.5009894 141.875
29.110876 -30.973665 4.563076 143
-79.143539 -29.345253 4.9614482 1010
-78.236687 -29.487337 4.4508562 903.93976
-77.708977 -29.52088 4.6457186 976.21472
-71.344681 -29.373327 4.4365964 1027.3125
-70.382957 -29.463926 4.4471908 1000.8087
-69.54557 -29.361277 4.5140405 1004.0188
-68.466118 -29.44943 4.4522738 999.81531
-67.843323 -29.468431 4.3779788 996.75
-66.135033 -29.209879 4.7580676 628.66669
-65.961945 -29.459827 4.7478437 628.18182
-58.582607 -29.824591 4.2870722 644.65851
-55.207893 -29.619127 4.4414177 1011.9434
-54.97847 -29.381044 4.2165871 1021.6364
-46.578438 -29.441393 4.5911374 1010.6667
-45.549263 -29.200499 4.0261202 845
-42.315975 -29.236864 4.4867363 609.04572
-34.561832 -29.622192 4.6572547 665
-29.220076 -29.605906 4.9313946 864.5
-28.436419 -29.340153 4.788846 915
-27.376274 -29.437973 4.4834914 694.62769
-10.370028 -29.622549 4.7662034 912.25
-1.7703574 -29.493946 4.6655068 135.11765
3.9549389 -29.844604 4.8701086 138
9.835618 -29.093439 4.1037078 135.33333
10.296825 -29.072226 4.1657767 139.39999
15.953207 -29.649929 4.6174822 63
16.167103 -29.485302 4.47369 102.90295
25.9368 -29.590424 4.6104708 58.611111
26.160769 -29.504839 4.462626 120.08595
27.139038 -29.403381 4.8160453 57.75
44.300064 -29.746698 4.4994235 759.33331
-79.36483 -28.505728 4.6000757 784.88892
-78.393143 -28.542236 4.5603824 995.93335
-77.810692 -28.707632 4.6301904 956.41431
-72.426727 -28.195005 4.3589234 1018
-71.242577 -28.564676 4.3739657 1026.2778
-70.28286 -28.523397 4.3426614 1006.9194
-69.520264 -28.674362 4.3743243 991.17377
-68.661789 -28.758106 4.4069686 985.44897
-66.287498 -28.965282 4.7869301 628
-65.64682 -28.022667 4.9228182 663
-56.081047 -28.140059 4.3963804 1008.7381
-55.596863 -28.61669 4.2368226 1019.4167
-46.199066 -28.958355 4.5757742 1011
-42.13612 -28.5065 4.4478188 621.3764
-41.965633 -28.308683 4.5837917 654.06665
-29.120184 -28.227636 4.5334721 544.83331
-28.361366 -28.476566 4.5225024 708.40149
-27.45575 -28.541491 4.4249516 673.24603
-26.40064 -28.695642 4.260498 615
-25.75705 -28.868155 4.2892494 628
-1.5555091 -28.466166 4.5023675 136.66667
-0.50684452 -28.435696 4.9581199 139.5
0.13737297 -28.452812 4.9257679 140.5
3.9309404 -28.877516 4.521173 131.5
4.2683339 -28.750875 4.5623565 135.77777
9.4500093 -28.914051 4.0070214 141
10.440651 -28.847971 4.0871501 132.33333
15.875161 -28.217945 4.5154133 77.714287
16.170261 -28.520617 4.4732957 92.799164
26.272284 -28.529001 4.4470382 112.083
27.283943 -28.421183 4.6988902 57
-83.093689 -27.700068 4.9926386 676
-79.509567 -27.34646 4.5022879 912.79999
-78.248856 -27.412022 4.3307066 1013.9625
-77.945457 -27.434155 4.4167199 1014.6364
-72.313072 -27.334738 4.2179537 1018.5714
-71.408531 -27.579283 4.198525 1018.4545
-70.275703 -27.525368 4.3379488 1014.6558
-69.594772 -27.391382 4.4098692 988.245
-68.645508 -27.357166 4.7312541 887.30768
-66.174393 -27.810728 4.7175751 626
-65.664482 -27.750284 4.5976582 663.5
-56.359238 -27.535675 4.3765454 1005.9826
-49.719494 -27.643667 4.6626744 662.33331
-42.109875 -27.638168 4.4450207 625.70349
-41.962658 -27.669235 4.6973667 633.375
-34.757565 -27.648111 4.5110059 665
-29.231424 -27.205889 4.6556711 888
-28.513468 -27.510506 4.3403563 682.35419
-27.129808 -27.542234 4.4650922 638.59058
-26.948162 -27.489931 4.7287383 602.81818
-1.7250462 -27.917049 4.7080441 127
15.75502 -27.785704 4.5942397 86.795921
16.131533 -27.470724 4.4924092 79.681526
26.366909 -27.46883 4.4389658 112.03294
27.300802 -27.431503 4.5855136 57.125
-80.779434 -26.40457 4.7781291 670.5
-79.354164 -26.518831 4.673315 1020.9091
-78.558846 -26.600407 4.4234309 1019.4667
-77.996063 -26.975183 4.5487208 1013
-73.407867 -26.156199 4.0489817 987
-72.362717 -26.371716 4.2763534 1009.9412
-71.421349 -26.382936 4.3119464 1000.8666
-70.356033 -26.438293 4.3584218 985.87067
-69.506538 -26.505857 4.4860854 966.76312
-68.770172 -26.601362 4.7085395 898.33331
-66.0009 -26.929974 4.7483311 629
-65.921715 -26.514935 4.7489462 636.0769
-57.039551 -26.128119 4.3375583 1003.8571
-56.790989 -26.60545 4.4458351 1003.8378
-49.736111 -26.414911 4.8285518 662
-45.47121 -26.707426 4.9451628 1017.5
-42.106098 -26.643692 4.4950137 612.72534
-41.946964 -26.515392 4.634491 648.3421
-39.460743 -26.285965 4.4500251 1021
-35.150978 -26.953796 4.4878092 665
-30.112333 -26.211197 4.8443847 1021.6667
-29.39105 -26.337145 4.7026334 777.57141
-28.70545 -26.552448 4.2049747 689.34485
-27.082994 -26.571653 4.4942641 645.77905
-26.892391 -26.340776 4.7566986 623.9231
-20.348408 -26.5424 4.8495588 665
-12.436377 -26.626043 4.5935392 927
15.953133 -26.727158 4.501708 76.5
16.140005 -26.785749 4.4633183 89.842697
26.426132 -26.49181 4.4342308 105.3592
27.332813 -26.56509 4.4925776 57.099998
-81.087929 -25.849007 4.5385785 1023
-80.43322 -25.503292 4.5143156 1005.5883
-79.414497 -25.812727 4.3244185 1025.0834
-78.860626 -25.951591 4.2221303 1022.5
-73.550468 -25.09668 4.3232298 922.625
-72.249969 -25.322634 4.5772824 996.25317
-71.444923 -25.3304 4.3692169 997.50616
-70.413002 -25.386566 4.4354835 973.49725
-69.632439 -25.586494 4.4703074 959.51843
-68.935455 -25.879969 4.786654 937.33331
-65.784203 -25.517426 4.6897898 645.66669
-57.299587 -25.545156 4.3811984 1002.3589
-51.074005 -25.346954 4.9041753 1018
-50.732464 -25.323393 4.9504423 1018.5
-49.631458 -25.373106 4.8183918 662
-43.322075 -25.924007 4.0339355 672
-42.086334 -25.377712 4.5585122 595.95001
-41.872383 -25.262457 4.5002303 610.07843
-39.459812 -25.689621 4.6846929 1020
-38.540283 -25.431986 4.0552163 864.71429
-35.693214 -25.292915 4.4003444 665
-30.20089 -25.484375 4.7328405 858.57141
-29.567062 -25.548237 4.5850534 816.07141
-28.759064 -25.629854 4.7697811 845.16669
-27.09082 -25.701254 4.4735823 648.34613
-26.915621 -25.465279 4.5347157 637.99036
-12.776808 -25.689154 4.5526681 924
15.993981 -25.535463 4.7308989 58
16.201012 -25.496321 4.4024124 83.810455
26.46707 -25.546108 4.4297137 109.97899
27.244209 -25.541916 4.360249 57.375
-84.56263 -24.775696 4.1245093 937.33331
-80.119392 -24.896585 4.7729869 675
-79.860191 -24.82658 4.4309516 1029.6
-74.13063 -24.265213 4.5965576 1019.1765
-73.421898 -24.372746 4.4444571 993.67358
-72.545509 -24.473423 4.4982147 978
-71.458054 -24.604477 4.4247389 980.32031
-70.71595 -24.724518 4.4734006 966.40344
-69.926971 -24.98711 4.4776878 982
-65.522049 -24.457832 4.5306025 650.59998
-58.010235 -24.065834 4.2867136 1000.3333
-57.749767 -24.580198 4.3879228 1000.4107
-50.349556 -24.081928 4.5250502 610.5
-49.538742 -24.051798 4.5615396 629.86664
-44.166912 -24.335629 4.2043991 675
-43.660702 -24.14995 4.3580542 669.66669
-42.143257 -24.599743 4.4598031 612.80304
-41.599697 -24.535608 4.507782 619.64233
-36.128597 -24.153463 4.3483424 665
-35.804008 -24.177225 4.3198447 665
-30.279848 -24.753487 4.6546226 777.15216
-29.723324 -24.713398 4.0807061 653.20001
-28.929665 -24.259785 4.0402331 560
-27.128521 -24.42474 4.565753 663.14288
-26.832611 -24.493448 4.4992981 638.33606
-21.002911 -24.097317 4.5894527 665
-20.857191 -24.7281 4.6564879 665
-14.267244 -24.690969 4.7735081 901.45001
-13.415709 -24.431627 4.5133376 911.61969
16.34387 -24.467707 4.4159827 88.531425
26.4 -24.465305 4.4532518 109.61812
27.208502 -24.256531 4.5386801 56.636364
-83.01825 -23.94248 4.2508426 977
-80.04438 -23.441067 4.7209764 733.79999
-79.71978 -23.277527 4.4624681 922
-74.18383 -23.679348 4.5241442 1024
-73.37677 -23.63274 4.4724951 1006.5206
-72.815697 -23.436794 4.5012612 983.09491
-71.289162 -23.475267 4.3757992 904.41669
-70.914307 -23.148228 4.5681448 884.75
-65.273438 -23.9484 4.4091058 664
-58.069607 -23.766222 4.428885 998.40912
-57.677425 -23.319727 4.2656627 783.30432
-51.323196 -23.534809 4.3449049 663.5
-50.18605 -23.263798 4.3963938 649.04999
-49.541809 -23.532341 4.4771509 638.74512
-48.230373 -23.826284 4.1568027 663
-43.171211 -23.944956 4.0469265 674
-42.044613 -23.946674 4.4284229 635.88892
-41.680828 -23.794167 4.5038733 637.85712
-35.919765 -23.985411 4.315074 665
-30.349998 -23.903824 4.0651412 676.75
-27.052082 -23.641558 4.467257 663.25
-26.736378 -23.517204 4.4978919 636.72339
-21.164743 -23.435112 4.5191145 665
-14.165364 -23.182159 4.4803853 906.66669
-13.820298 -23.561316 4.3409576 922.18518
10.410414 -23.085323 4.6552858 135.60001
11.232931 -23.082497 4.4259005 136
16.456911 -23.506483 4.4106946 84.421295
26.383295 -23.475153 4.4634657 108.07401
27.168734 -23.443817 4.4495034 57.307693
31.392059 -23.384226 4.7286463 48.599998
40.626827 -23.05829 4.397789 770.25
50.987888 -23.615807 4.8103871 784
51.319878 -23.311623 4.3557377 779.1875
-80.411491 -22.450609 4.5222287 894.63635
-79.688484 -22.803003 4.7170649 802.33331
-74.671227 -22.721172 4.7269826 884
-73.328926 -22.482187 4.7195125 1017.8846
-72.427277 -22.481344 4.4631433 993.71838
-71.766251 -22.354094 4.4428535 949.7149
-70.871368 -22.598269 4.6367536 886
-65.202454 -22.257608 4.6193948 641.16669
-58.404331 -22.323271 4.2756133 782.64001
-57.573975 -22.60199 4.3266845 641.36957
-50.155922 -22.472206 4.4444485 1024.4231
-49.73983 -22.720068 4.2653093 844
-47.513405 -22.036322 4.0644445 663
-41.641037 -22.295893 4.4793015 621.1059
-40.306175 -22.207653 4.2586179 682.29999
-39.9781 -22.321701 4.0568681 682
-36.254005 -22.466137 4.2243576 665
-32.205276 -22.291842 4.4447241 988.66669
-31.12985 -22.21887 4.1969352 906
-30.520601 -22.143545 4.5852489 770.42859
-27.004848 -22.959997 4.3613625 664
-26.650171 -22.491848 4.4865422 638.99298
-21.336466 -22.571161 4.4275503 665
-15.064602 -22.052452 4.6439557 892
-14.519107 -22.463825 4.3939137 913.70001
-13.973475 -22.983925 4.1985335 914
10.560283 -22.951508 4.8670607 134
15.291528 -22.158766 4.5510559 73
16.439735 -22.496416 4.4574142 82.190475
26.697401 -22.549482 4.419735 92.433258
27.175182 -22.435385 4.403471 64.75
30.911568 -22.026743 4.4535747 51
31.418848 -22.770424 4.8276563 45
32.440083 -22.048466 4.2787337 56
40.731606 -22.93161 4.7143636 763.59998
41.65984 -22.262392 4.8106837 75
-85.874756 -21.738802 4.9690013 874
-80.525772 -21.746609 4.0391626 1003
-77.178131 -21.314684 4.2833381 962
-76.527664 -21.419111 4.2227769 969.95831
-75.51738 -21.289356 4.2958217 989.57892
-74.495834 -21.282204 4.4595571 991.46155
-73.457619 -21.315439 4.5978761 976.43677
-72.362915 -21.396 4.4691458 974.91357
-71.78273 -21.553246 4.4776645 949.76062
-65.292656 -21.718054 4.7819581 639.81818
-59.184521 -21.560829 4.0981951 996.16669
-58.99242 -21.962324 4.2092357 996.5
-57.382614 -21.463463 4.2201056 970.83331
-56.585609 -21.116783 4.2214966 974.20001
-50.270996 -21.619795 4.4213619 1025.4166
-49.062466 -21.857231 4.7533784 662
-48.905914 -21.904985 4.7262497 662
-47.249424 -21.682495 4.7231083 661
-41.48299 -21.264385 4.4755435 616.62201
-40.619766 -21.618307 4.378808 681.22223
-39.128017 -21.754446 4.4850168 671.66669
-38.651234 -21.487741 4.3702908 669.63635
-36.394634 -21.904732 4.1930189 665
-32.202198 -21.283148 4.2738314 899.55316
-31.448687 -21.383587 4.4226956 859.94977
-30.7292 -21.611151 4.4973564 851.50421
-29.7913 -21.708443 4.5199389 896
-26.549767 -21.510899 4.4952826 640.26056
-21.623983 -21.475557 4.3113756 665
-15.183516 -21.320158 4.3823957 910.01752
-14.843023 -21.682253 4.1971731 914.46667
16.455355 -21.421642 4.442555 91.61058
26.750036 -21.460985 4.4500694 99.600456
27.072491 -21.393505 4.3503451 94.880432
30.969606 -21.910923 4.6328602 46.5
31.75948 -21.506271 4.3650198 53.75
32.399403 -21.841524 4.2678761 55.666668
38.962639 -21.20491 4.9549627 750
42.317276 -21.041801 4.8543162 78
44.533348 -21.313272 4.2373977 80.125
-87.088791 -20.053478 4.3102551 929.5
-86.933411 -20.289104 4.1148696 939.25
-77.28643 -20.707241 4.2011518 980.875
-76.363663 -20.471651 4.3249335 977.31067
-75.452866 -20.371555 4.4678216 982.07526
-74.454666 -20.392355 4.4782033 974.98639
-73.55558 -20.577465 4.469646 969.68262
-72.586266 -20.722097 4.4181476 960.85211
-71.938087 -20.972685 4.6282482 989.66669
-57.230896 -20.348846 4.5181937 969.59998
-56.138721 -20.902117 4.2856812 975.33331
-55.532333 -20.622408 4.137042 978.45453
-54.66552 -20.204784 4.1037683 983
-51.054848 -20.038263 4.4974709 1029.5
-50.777557 -20.572441 4.4686327 1027.5
-44.899117 -20.917002 4.1903744 665
-41.327232 -20.487024 4.4752927 627.47589
-32.297653 -20.625341 4.4576359 839.63062
-31.455826 -20.484434 4.4834547 793.48529
-30.805237 -20.601665 4.4461751 875.46375
-26.446175 -20.541298 4.4915915 638.28259
-21.896433 -20.379477 4.1953583 665
-15.560015 -20.512547 4.2694025 924.7077
16.470005 -20.63282 4.457828 93.760277
26.784182 -20.372623 4.5004067 97.018448
27.131037 -20.490215 4.3400445 85.574768
28.236694 -20.366302 4.5510335 85.333336
29.339727 -20.102198 4.7489924 111.33334
30.437952 -20.732346 4.2800937 50.75
31.663635 -20.12359 4.2188516 62.416668
32.71698 -20.03726 4.3112626 66.199997
33.101273 -20.058443 4.4231877 65
41.624168 -20.158176 4.7362032 78.5
42.741158 -20.291801 4.1063757 80.153847
43.056335 -20.037069 4.0685711 79
44.5807 -20.344912 4.233933 81.375
-87.244461 -19.665052 4.1573253 937
-85.880585 -19.924486 4.0270076 941
-84.219322 -19.029156 4.8664131 959
-83.63765 -19.373276 4.2405987 666
-76.205444 -19.800804 4.1912465 993.88892
-75.353073 -19.561749 4.4674306 990.29193
-74.604843 -19.517788 4.4389338 980.841
-73.198959 -19.407658 4.2694273 913.21051
-72.787361 -19.262083 4.5607462 888.84613
-65.430824 -19.820593 4.6145644 612.5
-59.519878 -19.081537 4.1060562 890.5
-57.446339 -19.755983 4.6226835 967
-56.682499 -19.442135 4.4840102 972.66669
-54.139778 -19.944391 4.1168365 986
-53.647671 -19.687813 4.2180505 989.27271
-52.498093 -19.163065 4.1039166 994.5
-51.295513 -19.52132 4.4889059 1029
-48.352596 -19.709238 4.8372893 664
-47.887257 -19.897781 4.7687011 664
-45.245075 -19.492838 4.1911016 665
-43.502872 -19.441362 4.0934072 683.66669
-41.293682 -19.710672 4.4724936 631.12183
-37.32478 -19.288651 4.4045248 667.28571
-36.36755 -19.500706 4.8214011 665
-33.036438 -19.181906 4.2900782 816.85712
-32.538223 -19.526937 4.5847669 774.75269
-31.447676 -19.580969 4.5011878 835.71429
-26.335485 -19.495131 4.4692149 638.07092
-22.077303 -19.3183 4.5088024 665
-21.954742 -19.510098 4.9718699 665
-16.176935 -19.362268 4.4551158 919.65515
-15.902956 -19.821613 4.4540663 914.80768
16.534744 -19.555302 4.4565744 98.623039
26.740368 -19.688503 4.385633 102.69125
27.289892 -19.658401 4.2783985 84.40741
28.081553 -19.841234 4.4132137 92.5
29.555635 -19.394499 4.0365329 52
30.172533 -19.372478 4.2385793 48.142857
31.908075 -19.811344 4.3064098 61
32.584187 -19.404766 4.3622065 69.85714
33.471733 -19.447294 4.9106774 69.900002
35.928219 -19.61268 4.213017 73
36.420326 -19.349155 4.3684273 76
37.4492 -19.650311 4.1850376 75.9375
38.65633 -19.022987 4.3110991 81
41.667942 -19.593025 4.7188802 80.666664
42.892841 -19.808535 4.0596061 82.333336
44.625355 -19.478456 4.2153254 84.85714
-84.400009 -18.387283 4.5180411 965.61108
-77.447968 -18.57687 4.6991825 882.30768
-76.167694 -18.374395 4.2875886 971.16669
-75.456657 -18.719084 4.5847259 1016
-74.410599 -18.585848 4.5371499 1004.1306
-73.703621 -18.368889 4.4361987 970.20288
-72.831398 -18.555893 4.705049 887.26318
-65.015793 -18.276817 4.8949003 657
-60.312336 -18.390928 4.4677863 936.75623
-59.631367 -18.257475 4.4189286 922.77899
-58.52774 -18.336035 4.2753782 885
-57.575844 -18.048859 4.424685 781.85712
-56.862617 -18.649677 4.5222864 969.5
-54.583126 -18.347397 4.3119946 992.14288
-53.723179 -18.159321 4.2494378 996
-52.037617 -18.95853 4.1842823 995
-51.474354 -18.329714 4.3987799 935.26666
-50.610035 -18.341307 4.6561069 904.55261
-49.651314 -18.365881 4.7171965 890
-45.590843 -18.163233 4.1994672 665
-42.282257 -18.448807 4.1683292 694
-41.294128 -18.654459 4.4467301 624.42108
-40.865353 -18.08897 4.2084346 684.25
-37.63427 -18.493099 4.4738135 675.42859
-36.834686 -18.448603 4.7548256 665
-34.134346 -18.804863 4.6260147 907.5
-33.370365 -18.452639 4.4674649 824.19489
-32.488209 -18.332167 4.5055876 753.58905
-31.787296 -18.596474 4.5035095 885.14288
-27.275265 -18.028328 4.1460915 595.5
-26.240566 -18.485043 4.4535875 634.36053
-25.982973 -18.164034 4.730463 609
-22.255484 -18.569004 4.5020952 665
-16.614964 -18.496672 4.6139731 918.19189
14.719707 -18.334551 4.9902692 61
15.288262 -18.51516 4.4483461 105.75
16.651667 -18.521338 4.4123716 106.54475
26.711651 -18.48381 4.3825755 106.84101
27.205542 -18.556883 4.1771822 84.933334
28.82394 -18.094042 4.0139771 48
29.42458 -18.133183 4.1194615 48.285713
30.642141 -18.494923 4.100986 62.285713
31.319153 -18.310196 4.0553732 62
32.5009 -18.383904 4.4994369 72.305557
33.406765 -18.384874 4.7550979 72.5625
34.420483 -18.454638 4.5297542 75.264709
35.738617 -18.523561 4.5422144 80.176468
36.095409 -18.534119 4.5764747 78
37.676346 -18.633875 4.8370185 80
38.585915 -18.514765 4.4287653 81
-87.358574 -17.66634 4.6452971 995
-85.187744 -17.439447 4.4049082 994.59998
-84.279327 -17.561199 4.4200644 976.08472
-83.914795 -17.567904 4.5197124 978.45453
-77.813721 -17.751261 4.6779747 881.25
-76.323479 -17.20813 4.7427802 907.66669
-75.301254 -17.375681 4.5292382 997.61902
-74.311676 -17.382307 4.5469613 981.19037
-73.735214 -17.610796 4.4981217 957.67255
-72.900627 -17.842167 4.8777747 890.79999
-65.104134 -17.367599 4.6621294 617.71429
-60.024269 -17.983078 4.2786126 917.5
-59.295864 -17.833733 4.4634652 940.59418
-58.497662 -17.483267 4.4889631 927.63361
-57.521217 -17.270796 4.4583678 923.70233
-56.78072 -17.241106 4.3266973 938.5
-55.292339 -17.305771 4.4673762 964.69232
-54.807968 -17.736811 4.2830157 994.66669
-53.623875 -17.534037 4.2096472 999.5
-52.161213 -17.12779 4.5148726 897
-51.588104 -17.523966 4.6188674 910.95422
-50.50909 -17.488466 4.5537534 938.61768
-49.655243 -17.414186 4.2339964 949.625
-48.73996 -17.125025 4.3139076 958.5
-45.72274 -17.660057 4.204093 665
-41.20842 -17.187073 4.4090557 605.45056
-40.528625 -17.133884 4.4653783 616.46454
-39.434132 -17.35248 4.2633176 677.16669
-38.641384 -17.339106 4.188632 674.79999
-37.555634 -17.505066 4.7363253 665
-36.809811 -17.704542 4.6490874 666
-34.064732 -17.096994 4.443717 788.40002
-33.58334 -17.484274 4.5728536 749.44305
-32.374069 -17.534037 4.4389277 850.07501
-27.621714 -17.742481 4.509367 561.77356
-26.141237 -17.532253 4.4469543 635.14789
-25.929218 -17.398167 4.5945129 610
-22.43055 -17.544191 4.6943264 665
-17.201191 -17.376183 4.6006713 916.15002
-16.919615 -17.859171 4.6123266 912.73077
16.786673 -17.490231 4.4406033 98.458336
25.348602 -17.063227 4.5825834 55
26.710716 -17.518095 4.362782 111.22074
27.674994 -17.668886 4.1896749 96.727272
28.211531 -17.743248 4.3397813 120.36364
29.213099 -17.513954 4.1403098 85.833336
30.644896 -17.660095 4.1937566 72.8125
31.629307 -17.701349 4.3374257 74.75
32.659744 -17.774519 4.24541 74.115387
33.115726 -17.836445 4.3187242 77.285713
39.01329 -17.911156 4.9954443 86
-84.544937 -16.892908 4.4763408 997
-83.577171 -16.555317 4.6631413 665
-79.274818 -16.028419 4.2366571 972.66669
-78.573952 -16.55864 4.5157299 939.69232
-77.571068 -16.241631 4.6000614 959.78052
-76.316956 -16.284258 4.6591024 967.77942
-75.390747 -16.359491 4.5083661 980.03113
-74.498116 -16.498287 4.4988213 972.06372
-73.900085 -16.714222 4.457253 877.4516
-65.032928 -16.222 4.5626955 615
-57.542995 -16.889368 4.8713584 883.56525
-56.355465 -16.435698 4.5101852 933.2019
-55.630661 -16.251173 4.4497247 924.43878
-54.556072 -16.35261 4.7967653 877.46155
-53.711681 -16.15954 4.7422094 890.90002
-52.347942 -16.718899 4.474771 908.19446
-51.51712 -16.619173 4.8032875 933.39288
-50.390709 -16.510784 4.8033614 948.28003
-49.425636 -16.520056 4.6115885 872.60529
-48.593117 -16.319376 4.4861312 848.97961
-47.633831 -16.41596 4.2949333 963.43475
-46.725018 -16.160379 4.1719637 968
-41.334171 -16.964315 4.4171391 615.09998
-40.203159 -16.473539 4.4555221 629.05096
-39.65556 -16.14484 4.5753908 657.375
-38.6134 -16.475491 4.5861988 676.76593
-37.54829 -16.369186 4.4993815 672.27271
-36.491322 -16.025391 4.3735318 675.66669
-34.267681 -16.515999 4.5935917 757.46936
-33.34037 -16.45142 4.734386 774.36365
-32.804237 -16.641258 4.5479541 844
-27.497278 -16.515228 4.2127185 596.54547
-26.067383 -16.64003 4.3690062 642.3913
-25.933788 -16.394459 4.5766425 623.23077
-22.732779 -16.374203 4.5292273 665
-19.650015 -16.079193 4.1265626 897.20001
-18.015963 -16.006094 4.9521575 932
-17.655413 -16.499454 4.6064925 913.66388
16.79846 -16.527399 4.4485121 100.31019
25.527868 -16.437296 4.4133191 87.553436
26.62306 -16.571115 4.3425674 110.69405
27.074652 -16.195902 4.167017 43.333332
34.64484 -16.623318 4.2417336 82.09375
35.521465 -16.320055 4.3733196 82.6875
-83.244034 -15.743874 4.6911731 665
-79.298836 -15.834228 4.562942 978.18182
-78.449989 -15.551363 4.5076365 988.16949
-77.632469 -15.471767 4.4979253 971.88477
-76.227364 -15.839262 4.7034769 968
-75.501564 -15.777442 4.4001594 950.68182
-74.781708 -15.753454 4.4676781 918
-57.272839 -15.203631 4.866488 615.79999
-56.499413 -15.476505 4.6163473 732.55554
-55.329842 -15.82477 4.5193429 925.79999
-54.482838 -15.497606 4.4711094 929.62469
-53.653328 -15.229834 4.4765391 933.37122
-52.551563 -15.292886 4.6340542 881.08826
-51.764854 -15.071152 4.5582838 887.75
-50.366699 -15.768291 4.7033782 939.88892
-49.315674 -15.374215 4.622787 765.10907
-48.695614 -15.626165 4.5158181 639.93915
-47.457298 -15.756374 4.4283266 965.67926
-46.456726 -15.354046 4.3425984 969.14545
-45.723503 -15.384389 4.2159863 968.88892
-44.660698 -15.151899 4.2796507 918.79999
-43.861637 -15.128995 4.7936339 750.75
-42.449699 -15.060098 4.4478951 665
-41.148075 -15.237145 4.5759196 648.5
-40.798527 -15.552589 4.5082111 641.25641
-39.372559 -15.616194 4.5713186 670.19049
-38.601189 -15.713117 4.7974696 676.83331
-37.34708 -15.675358 4.5142636 666.16669
-36.387562 -15.555684 4.3436775 730.58826
-35.548717 -15.150114 4.2374582 735
-34.224857 -15.245088 4.5481067 769.71643
-33.580563 -15.476467 4.6170168 812.39105
-32.725296 -15.492009 4.8468709 896
-27.451355 -15.529379 4.2068496 597.59998
-26.075022 -15.589171 4.5617442 658.76923
-25.881092 -15.499355 4.5069761 634.00928
-23.083912 -15.029252 4.3398356 665
-22.930252 -15.61029 4.4216328 665
-20.119495 -15.180407 4.0693789 896
-19.886406 -15.643275 4.1117096 896.55554
-18.2393 -15.401763 4.5307107 909.10345
-17.943951 -15.873487 4.5639157 897.67999
16.799303 -15.476991 4.4961481 97.435066
17.00499 -15.273079 4.9067869 127
25.497309 -15.518509 4.4488354 83.348991
26.683197 -15.507084 4.3373008 110.73481
27.116138 -15.611388 4.089026 44
36.128323 -15.699284 4.4589548 81.727272
38.827297 -15.502299 4.9291096 87.375
-77.222076 -14.872658 4.5045443 989.92859
-76.46759 -14.571503 4.5032392 1001.0685
-75.69928 -14.239958 4.5327258 960.78619
-74.945671 -14.888125 4.8873138 889.5
-64.677315 -14.429501 4.5212507 613.33331
-57.206135 -14.402227 4.3339052 646.40002
-56.660591 -14.711947 4.456171 632.38708
-54.126526 -14.931815 4.5765147 887.57141
-53.299202 -14.833508 4.4899268 927
-52.492687 -14.515137 4.4891596 937.41101
-51.636326 -14.221966 4.4387393 941.0719
-50.522686 -14.333154 4.5123248 876.84149
-49.797691 -14.171268 4.4499407 913.8421
-48.36853 -14.385324 4.3796034 977
-47.405735 -14.511244 4.4747586 978.23077
-46.536133 -14.439906 4.4672151 977
-45.610256 -14.573451 4.331049 976.61664
-44.386101 -14.613303 4.5218749 894.19611
-43.477528 -14.514856 4.4760919 891.81537
-42.562366 -14.243992 4.7037592 881.02173
-41.756172 -14.105062 4.8610902 722
-40.791698 -14.512529 4.2562852 638.25
-39.358944 -14.49922 4.6195655 661.35712
-38.536331 -14.604504 4.3276353 690
-37.650562 -14.887382 4.4630642 665
-36.248997 -14.467756 4.4883685 904.05554
-35.39323 -14.426843 4.5047622 828.7782
-34.542023 -14.4872 4.5353017 836.45148
-33.864742 -14.850476 4.7122793 893.79071
-26.138678 -14.455879 4.3041043 623.85712
-25.795536 -14.494084 4.4856553 637.35455
-23.254019 -14.364377 4.5232992 665
-20.346291 -14.687859 4.0263643 896.90002
-19.011227 -14.079908 4.8394403 920.59998
-18.702227 -14.503368 4.4950037 909.4342
16.840292 -14.591326 4.5004015 114.33929
17.02302 -14.460215 4.8502383 125
25.5448 -14.498623 4.4602499 82.760147
26.628584 -14.494886 4.3604264 101.44099
27.165339 -14.605919 4.0921659 47.700001
36.175182 -14.38723 4.4397864 83.166664
39.362099 -14.548056 4.9901628 86
-78.380928 -13.382974 4.4508209 665
-77.636581 -13.012183 4.4146852 665
-76.166092 -13.358752 4.4999366 971.82202
-75.850929 -13.696551 4.5806651 945.00403
-64.715988 -13.495979 4.5014892 612.91669
-52.115253 -13.947468 4.4605794 891.5
-51.27285 -13.725159 4.5041518 938.33795
-50.577045 -13.637603 4.4567165 921.53174
-49.47126 -13.316787 4.4484687 940.26953
-48.669872 -13.383545 4.402267 890.60419
-47.55056 -13.123329 4.1175685 983.07141
-46.29216 -13.647408 4.3514977 982.10529
-45.652405 -13.592289 4.1773953 984.27905
-44.624966 -13.919684 4.820766 854
-43.180271 -13.91858 4.975831 886.81818
-42.394447 -13.759129 4.7334404 881.35138
-41.504761 -13.59256 4.6017647 901
-40.710552 -13.363374 4.365036 765.47943
-39.375759 -13.442492 4.6309252 669.06451
-38.03017 -13.040784 4.9502964 665
-37.431545 -13.450149 4.4425006 665
-36.165714 -13.329003 4.4877248 831.42859
-35.494923 -13.484975 4.5584798 745.25189
-34.87011 -13.889259 4.6425118 760.40002
-26.605125 -13.971905 4.3081164 562.33331
-25.698677 -13.551424 4.5198364 631.01074
-23.451139 -13.569698 4.4656582 665
-19.278328 -13.436237 4.4958382 898.97687
-18.950571 -13.918592 4.3968697 862.92859
16.885534 -13.507201 4.486475 116.58678
17.052153 -13.448859 4.8371062 123.63636
25.579626 -13.510368 4.4689417 86.11969
26.678793 -13.471855 4.371232 84.384979
27.225855 -13.553044 4.0924435 46.666668
34.764347 -13.350281 4.2103205 88.111115
35.656078 -13.679108 4.3620434 87
38.905537 -13.830734 4.9440446 89.666664
-76.52533 -12.511624 4.5393271 960.88562
-75.967346 -12.957433 4.9424448 891
-64.827133 -12.656229 4.4764328 612.79999
-51.236019 -12.666228 4.6354513 981.91272
-50.581779 -12.311805 4.5972266 942.54675
-49.285015 -12.763093 4.4410224 864.26965
-48.358795 -12.523376 4.459897 942.22748
-47.624619 -12.308412 4.3771491 876.61664
-46.608788 -12.248733 4.4646707 750.17896
-45.737019 -12.615363 4.1348925 952.28571
-42.258369 -12.516682 4.9571981 665
-41.800041 -12.386835 4.8643847 665
-40.598286 -12.555688 4.4689598 658.28833
-39.327816 -12.45857 4.4460711 798.44
-38.447651 -12.337586 4.4172926 725.02039
-37.754047 -12.17661 4.3333936 679.61902
-36.2911 -12.766569 4.4912739 793.01819
-35.557667 -12.629885 4.4951816 823.18787
-34.900051 -12.484985 4.477417 895.66669
-25.587736 -12.512125 4.4876842 630.95715
-23.661844 -12.746533 4.4387884 665
-20.070297 -12.166142 4.752665 903.7619
-19.752111 -12.504696 4.4866633 897.48651
16.914564 -12.566582 4.3418851 122.41284
17.072823 -12.341132 4.6306763 108.86667
25.66638 -12.780009 4.4158869 83.055557
26.747448 -12.613927 4.4619026 72.81778
27.106501 -12.352695 4.4053421 48.557144
32.645527 -12.07072 4.0831814 97.444443
33.383663 -12.105949 4.165885 95.764709
34.64035 -12.163025 4.3767924 95.666664
35.485058 -12.20028 4.4839373 94
37.732323 -12.210641 4.1559286 91.400002
38.811119 -12.331467 4.3776479 91.222221
39.004166 -12.416919 4.9709787 90
-77.174469 -11.336183 4.4734507 953.36023
-76.861267 -11.719383 4.5665746 943.15039
-64.727875 -11.458067 4.4345284 612.875
-50.142815 -11.922552 4.7676029 973.94446
-49.495884 -11.681398 4.6281142 978.18256
-48.485851 -11.539358 4.5269279 908.43256
-47.359165 -11.836349 4.4032836 908.65369
-46.465679 -11.528558 4.4538155 909.65924
-45.625488 -11.315295 4.4772334 858.68829
-44.653099 -11.215624 4.5624385 702.52875
-43.962425 -11.012629 4.8207493 699
-42.011738 -11.538992 4.2331314 928
-41.480583 -11.581919 4.2338777 928.29999
-40.542927 -11.396499 4.287817 753.479
-39.353432 -11.513092 4.4596 808.20691
-38.332623 -11.616825 4.484251 886.89471
-37.370861 -11.360332 4.4181638 834.11859
-36.463734 -11.226163 4.4504108 795.04053
-35.936226 -11.478474 4.5119586 722.88
-25.465345 -11.517833 4.4389853 628.96924
-24.029663 -11.287653 4.3950486 665
-23.901241 -11.814281 4.4867215 665
-20.301231 -11.461081 4.5069385 908.06818
-19.681086 -11.66629 4.7594829 855.77777
-18.734833 -11.113407 4.8308959 862.25
15.734108 -11.248296 4.5817657 110.70834
16.319439 -11.297912 4.3632956 117.69231
17.131807 -11.535291 4.4565792 106.33155
26.909246 -11.499742 4.521019 109.00877
27.104666 -11.460397 4.3684311 50.174698
33.996788 -11.262863 4.2628012 766
34.171619 -11.467339 4.2469745 764.40002
40.10054 -11.330988 4.6209679 98
44.937351 -11.763699 4.5565596 772
45.297615 -11.611163 4.5361204 769.8205
-79.419762 -10.384175 4.204906 704
-78.03067 -10.014795 4.0851545 697.5
-77.546059 -10.500363 4.530036 942.90247
-76.52578 -10.775557 4.5980172 721.25
-64.39122 -10.313063 4.5309772 616
-63.493172 -10.430421 4.6509094 665
-62.305759 -10.094416 4.532649 665
-49.02689 -10.80265 4.7507296 785
-46.165119 -10.936271 4.851491 883.75
-45.316284 -10.81287 4.5015702 911.65399
-44.470043 -10.510949 4.467957 915.05353
-43.624752 -10.30805 4.465066 852.10956
-42.451633 -10.131138 4.5278845 700.17798
-40.408325 -10.566052 4.4322882 713.78705
-39.422138 -10.542247 4.4655423 862.31708
-38.433277 -10.339632 4.5004659 875.48151
-37.541977 -10.47864 4.4147353 809.52112
-36.587849 -10.760061 4.4990778 823.50201
-35.898251 -10.87167 4.5050898 896.33331
-25.311071 -10.499969 4.5323954 618.24072
-24.236778 -10.465967 4.2521915 665
-21.066875 -10.107411 4.5557356 916.82855
-20.769157 -10.548257 4.4971452 911.47058
-18.449568 -10.882209 4.8573842 864
-16.666615 -10.026174 4.7588506 882
17.146112 -10.549359 4.397511 104.25233
27.255148 -10.495433 4.3869424 57.42297
32.455605 -10.214994 4.0663915 664
33.878136 -10.810162 4.0415378 762
40.139641 -10.368948 4.6053419 97.400002
45.157013 -10.960046 4.6846399 777
-79.461632 -9.177206 4.8329115 665
-78.184937 -9.3462353 4.4720101 934.33929
-77.861809 -9.7545567 4.5842462 950.1015
-64.334442 -9.4002094 4.6359472 619
-61.407906 -9.9061394 4.4397092 665
-59.250488 -9.2451477 4.2277389 665
-58.567711 -9.0160465 4.1617427 665
-44.141571 -9.9267263 4.6134768 885
-43.314621 -9.8222055 4.4974375 912.57141
-42.544212 -9.6417255 4.4745741 882.0354
-41.469109 -9.3740702 4.511591 933.21759
-40.395103 -9.5052805 4.5182319 693.36426
-39.576954 -9.1857958 4.5263448 630.49738
-38.371006 -9.564126 4.3968463 780.07825
-37.487877 -9.6237602 4.4493237 820.36798
-36.84906 -9.7145491 4.3963919 775.65649
-25.214191 -9.5431728 4.5193577 618.12244
-24.451319 -9.6186838 4.1055498 665
-21.318705 -9.5005665 4.4981356 909.40369
-20.950632 -9.8768978 4.50038 841.83331
-16.615917 -9.9951506 4.7587762 883
-15.284216 -9.3353062 4.7815924 881.53845
-14.993851 -9.0455952 4.7710304 876
17.114388 -9.4515944 4.5037289 114.23387
25.609777 -10.981357 4.3847084 74.90004
32.497082 -9.6664534 4.1712947 702
33.537407 -9.8778973 4.1410918 664
43.797737 -9.5494041 4.8087869 749.5
44.610378 -9.6905947 4.6103578 777
-79.039299 -8.0672245 4.2907782 709
-78.56218 -8.5236273 4.5171266 941.93152
-77.617935 -8.0154953 4.5793295 881.5
-64.336891 -8.5271015 4.4963737 616.16669
-58.238258 -8.9979992 4.1249743 665
-57.393604 -8.710536 4.0435815 665
-48.508163 -8.3380165 4.6443086 619.63336
-47.896873 -8.2080641 4.5090585 633.39392
-41.155689 -8.7914333 4.4814119 933.3988
-40.460125 -8.490077 4.4619174 874.90509
-39.508076 -8.352191 4.49154 743.94452
-38.442394 -8.1619787 4.5056667 761.42267
-37.698631 -8.3610716 4.4537787 744.20599
-25.115974 -8.5217829 4.4532809 617.34424
-24.976601 -8.0867147 4.5918703 619.75
-22.061106 -8.1428251 4.4952512 917.8269
-21.773136 -8.5908136 4.5083675 916.90137
-14.894217 -8.9963121 4.7614536 876
17.185556 -8.6024399 4.4744196 115.17424
24.383997 -10.371639 4.2283077 97.712929
31.792976 -8.5418892 4.9487238 133
33.481422 -8.6215916 4.1055679 108.88889
34.37685 -8.6589775 4.1426067 106.3
35.614525 -8.5108566 4.3469028 103.33334
36.654621 -8.8221893 4.2742815 103
40.189587 -8.6233025 4.6985621 101
42.580322 -8.3989639 4.7594924 743
43.162876 -8.3519115 4.963438 753
44.025852 -8.5304871 4.5748663 778
-79.209366 -7.3594761 4.4808593 921.14087
-78.863098 -7.7482986 4.5829048 944.11218
-77.522324 -7.5422602 4.685308 864.44446
-64.320824 -7.5040283 4.4182496 616.57141
-56.391502 -7.3643465 4.8213372 618
-55.832973 -7.3380065 4.8105035 615.33331
-54.170319 -7.0370779 4.6550751 626
-53.370426 -7.1975918 4.5091252 631.75
-52.728703 -7.188396 4.4180069 627.18182
-51.612999 -7.1577921 4.2697635 665
-47.849072 -7.7268157 4.4567475 635.79248
-42.196098 -7.382525 4.0285606 665
-40.126102 -7.6269674 4.4620199 670.37683
-39.372597 -7.8135753 4.4639115 882.44727
-38.459858 -7.5448232 4.4516454 872.65131
-37.86684 -7.7902031 4.4454341 812.54492
-25.050524 -7.5639143 4.3421221 618.57501
-24.946358 -7.3587141 4.6168542 618.88464
-22.356981 -7.504993 4.483397 919.48041
-21.905632 -7.8641181 4.619976 855.40002
-15.7024 -7.317791 4.6122398 887.79999
-12.299583 -7.7496891 4.8375692 868
14.86034 -7.4217138 4.978569 660
6.2623277 3.8114059 3.0262501 528.10602
17.195662 -7.405519 4.4940434 110.3806
23.62871 -11.110374 4.086741 113.65392
40.258099 -7.3991938 4.7739944 101.8
42.711102 -7.3681107 4.7136803 745.5
43.068825 -7.242167 4.4858298 753
50.68626 -7.1807084 4.7128186 40
40.872719 -4.0294275 4.6328726 136.36734
56.48983 -7.0696058 4.307045 17
59.712524 -7.1695967 4.0351715 38
60.732319 -7.2611027 4.0868621 38.25
62.187164 -7.436244 4.1350441 39.5
63.729752 -7.1346116 4.3375421 33
-80.060638 -6.1430597 4.4463143 754
-79.617722 -6.5328627 4.5163598 930.35553
-78.185974 -6.3173409 4.3565841 906.40002
-77.833008 -6.3675289 4.7262044 849.70367
-76.961044 -6.9905796 4.7787857 665
