# .PCD v0.7 - Point Cloud Data file format
VERSION 0.7
FIELDS x y z intensity
SIZE 4 4 4 4
TYPE F F F F
COUNT 1 1 1 1
WIDTH 1235
HEIGHT 1
VIEWPOINT 0 0 0 1 0 0 0
POINTS 1235
DATA ascii
19.373749 -52.637794 2.3653274 75
20.61455 -52.435879 2.5375369 69
21.358143 -52.528297 2.7132244 59.049999
22.632608 -52.424107 2.5247991 67.333336
23.358391 -52.114239 2.6155267 64.916664
24.589714 -52.819267 2.6449924 65.222221
25.244751 -52.81868 2.4724798 79.333336
-16.250553 65.420418 -1.3969349 460.66666
7.1401196 -51.83902 2.8264911 471
9.5836496 -51.866074 2.5945907 105
10.329922 -51.879238 2.4194565 107
11.555616 -51.246292 2.332418 59.375
12.431371 -51.243053 2.4838433 56
13.427643 -51.324036 2.6563444 51.5
14.591377 -51.375385 2.5992484 53.599998
15.609282 -51.487049 2.4706693 52.333332
16.17313 -51.786816 2.5092337 56.666668
17.263 -51.527626 2.5492048 57
18.357283 -51.142033 2.7923653 74.199997
21.727896 -51.631721 2.6021008 68.599998
22.504116 -51.539646 2.693599 60.866665
23.16954 -51.880066 2.7831299 59
28.639547 -51.161777 2.8165517 76.875
29.351318 -51.350941 2.9305036 83.400002
7.3097591 -50.529701 2.7251487 471
8.9717407 -50.143776 2.1620202 49
9.5171766 -50.059261 2.1602781 49
10.049232 -50.007248 2.1590085 49
11.47406 -50.794201 2.4241204 50
12.559376 -50.4039 2.3316364 49.666668
13.369053 -50.441605 2.2890325 49.5
14.505867 -50.856289 2.420516 50
18.321413 -50.954559 2.4013844 72.5
19.832273 -50.076042 2.5347085 91.307693
20.286982 -50.241077 2.6753006 70.25
27.4387 -50.588776 2.6162508 69
28.252748 -50.814079 2.8405402 71.714287
-35.54829 -24.339916 -4.2485642 80.199997
7.4574695 -49.30677 2.3077314 364.25
8.5863361 -49.311081 2.0443411 47
9.6152048 -49.342106 2.0440438 47
10.561237 -49.539413 2.0727177 47.5
7.6814895 -47.114506 1.5632132 80.954544
3.5682514 -45.09827 1.2356566 40.208332
15.959828 -49.736824 2.1559131 49
9.5536585 -45.882759 1.5022782 46.896107
12.941481 -43.467529 0.80887389 102.79167
15.215641 -43.297436 0.74745613 119
19.665668 -49.967213 2.6924508 89.666664
-38.347137 -24.32431 -4.0838866 74.166664
-37.517765 -24.539888 -4.0508184 73.199997
31.596804 -49.902058 2.9436474 94.333336
32.339664 -49.883987 2.840704 72
14.228395 26.185966 0.27286637 268.55359
-10.361321 -34.310677 0.042253342 83.479546
11.530772 -44.299229 1.2128342 321.33334
-5.8246713 -40.770901 0.3752518 102.21429
-6.5054741 -39.76466 0.31482792 113.0098
10.613761 -48.729942 2.3139296 248.75
6.2461629 -45.5597 1.6096302 34.562962
4.9971452 -44.389187 1.2308391 40.042103
10.322468 -46.11306 1.6391546 41.56818
14.309061 -48.978981 2.2863913 474
4.0284696 -39.490433 0.27042213 47.277782
10.737522 -45.838528 1.6651233 42.599998
12.971272 -46.625866 1.9706684 36.924999
14.402864 -46.44117 1.838474 97.153847
1.9405022 -39.887188 0.48321724 36.888889
20.479534 -48.158848 2.9992518 105
28.683128 -48.028721 2.8199708 75.181816
-8.096489 -47.108242 2.8389046 467
3.9545956 -47.332413 2.1011658 15
-2.4708865 -19.593576 1.4271206 159.77777
2.921612 -10.714367 0.9458223 178.65973
6.2288904 -23.158951 1.4919736 177.48077
2.3088048 -24.092979 1.3448722 185.78255
9.2697611 -47.554729 2.2944808 244
10.868962 -47.310535 2.7486951 24.333334
5.8786063 -44.898476 1.6565052 33.700001
12.013469 -47.891594 2.4876008 27
6.5424161 -44.456711 1.3280654 43.916668
7.0230412 -42.754299 1.1612785 41.35294
15.281744 -44.645443 1.6720899 56.941177
16.236769 -47.792408 2.6783011 18.666666
17.377832 -47.195522 2.7868629 13.5
18.305223 -47.655083 2.8375823 13.5
19.554968 -47.943359 2.7428885 109
25.34668 -47.18483 2.5151258 95.384613
28.246662 -47.944664 2.7603157 88.473686
-8.0719204 -46.877415 2.6568468 466
4.5354772 -46.598877 2.1044996 15
5.2420197 -46.733521 2.1195359 15
4.1768947 -9.4647379 1.0885845 161.36502
-0.11166 -32.670277 1.5506997 42.554859
-4.3294702 15.967453 0.29379743 266.18338
9.3881149 -46.869217 2.2135327 15
10.69344 -46.409256 2.4764941 16.666666
11.383746 -46.56662 2.4758649 24.714285
11.050394 -45.595711 2.2571099 80
13.505267 -46.614403 2.5123818 105.6
14.510768 -46.755608 2.4092112 20.799999
15.354467 -46.368088 2.5638762 15.25
16.76461 -46.898842 2.7020459 14
17.172754 -46.555481 2.7367783 13
25.705343 -46.572628 2.607409 93.411766
26.282578 -46.806091 2.7814786 72.5
28.099297 -46.456383 2.8960857 477
-17.054283 -33.40749 2.031641 133
-18.038107 -2.920876 1.0103509 285.80341
2.6589003 -18.717279 1.338667 134.2402
7.7871504 -6.1535378 0.93429339 257.8887
6.418623 -27.658909 1.6651648 142.28545
10.339972 -36.348782 2.1422312 114.7788
11.696607 -40.79847 2.3149185 79.422173
8.4804964 -6.8098454 1.292835 201.91985
14.679563 -45.634499 2.4476981 16.6
15.255257 -45.835796 2.68908 13.166667
17.673475 -45.788563 2.8989363 12
23.711142 -45.31712 2.5122061 63.75
24.045921 -45.47887 2.5027363 64
-8.1379223 6.7447929 0.84467709 163.53
-37.679535 -44.786472 2.2255373 22
-8.2355442 -44.679276 2.442522 458
-7.9952488 -44.647331 2.4242644 458
6.905849 -44.77359 2.1340642 15
-3.9779294 -30.901306 1.8972107 121.29252
0.0086894035 -31.142923 1.9534284 111.51667
-1.1982565 -11.873306 0.80778551 169.61354
8.5719194 -17.298399 1.5294454 110.65
10.093946 -17.772873 1.5135864 168.45857
8.7386303 -17.99246 1.472633 174.08463
11.125061 -27.246897 1.8549789 107
11.308604 -28.698713 2.0910013 98.222229
15.824644 -44.82687 2.9029937 236
-0.051486969 -21.047319 -4.0667405 100
20.864153 -44.145668 2.4907815 86.464287
20.56102 -43.590145 2.3633904 70.515152
17.775915 -35.451847 -0.15979414 150
-12.584838 -30.341221 -1.7869823 74.940002
-19.676952 -21.931507 -4.0373411 75
26.488068 -44.3008 2.1627219 101
-38.676266 2.3263614 1.7753309 428.55554
2.0722258 -26.371557 1.6278682 118.8653
11.45746 -29.736675 1.8161497 87.491302
18.217304 -29.627569 1.8790566 59.55088
13.683296 -43.169235 2.4424698 103
17.169891 -12.146609 1.5382996 182.74536
16.783998 -43.851952 2.9312711 461
-0.71903735 -35.610073 0.25762096 329.2941
18.890587 -43.038177 2.6029918 64.125
19.046318 -43.103333 2.6175847 73
20.865726 -43.882812 2.8445947 108
0.57209301 -6.0270758 0.28506041 290.33331
0.36523286 -23.716898 -0.015526009 170.90572
23.115894 -43.320129 2.5930638 91
24.806194 -43.532387 2.1640699 99.400002
25.085022 -43.571293 2.2264051 99
23.574884 57.375317 -0.38675433 364.42856
-37.521851 2.2700176 1.4444696 330.375
-36.297863 2.2384262 1.3829056 256
8.8442907 -42.986725 2.0862556 49
-11.312697 -20.142399 1.9223784 206.20833
-3.6382453 -27.354797 1.8443843 101.35632
11.72442 -42.469231 2.0206275 7.4000001
12.540755 -42.419071 2.6953092 96
20.752007 3.9673729 1.0475504 304.6012
15.577393 -42.370766 2.6153879 148
16.726759 -42.060589 2.6262386 56.142857
14.606218 -29.845451 1.6226107 115.44444
18.648697 -42.795277 2.5045733 159.94737
2.9624777 -26.316519 0.8687098 398.91666
-21.1584 31.532087 -2.3543949 475
10.739273 -23.831299 1.427604 191.89999
22.590639 -42.642006 2.3790724 94.473686
23.180643 -42.736496 2.3463328 95.333336
-47.332527 -41.519081 2.1104407 7.75
-45.092751 -41.051502 2.0145111 9
-42.76627 -25.340433 1.8459631 54.083332
-43.470818 -41.718491 2.0992937 7.5
45.457413 25.522442 0.68056417 187.12698
-14.780293 -12.370056 1.7112945 289.68774
-0.19513719 67.505608 -5.675097 459.25
30.265478 -8.1376085 1.320938 103.30357
20.018829 -6.9051552 1.6849799 135.94753
20.360609 -13.772863 1.5742824 240.74651
16.356121 -40.09222 2.3124206 79.30645
5.0465713 -29.412659 1.7933747 128.08
18.996944 -41.956882 2.925808 463
19.279421 -41.871124 2.8257608 461
21.636047 -41.514263 2.5836928 98.916664
22.391981 -41.471676 2.612885 101.78571
23.51545 -41.184959 2.0214219 99.5
24.142258 -41.164158 2.134707 98.5
-37.950253 -20.933382 1.6822227 157.92223
-41.783413 -25.017126 1.9935656 159.51282
-33.330013 2.5754924 1.1504605 15.714286
3.0418854 13.948005 1.1648958 290.94171
2.7780087 -26.267523 1.7431602 163.90477
12.551235 -40.336056 2.384655 69.25
13.740901 -40.803886 2.4209478 76.947365
14.909129 -37.90815 2.5326796 51.724926
21.375246 21.380346 0.30444479 250.46977
42.785351 50.090961 -0.13284159 334.33334
17.43782 -40.935146 2.6842396 102
18.45446 -40.249828 2.6914659 114
19.046755 -40.814354 2.7728796 102
21.550488 -40.641647 2.0445113 97
23.800217 -40.706726 2.0751245 99
50.483677 25.459579 0.66372734 213.35956
11.923342 -15.864067 1.5770313 186.6875
-11.884316 -23.17588 1.7435082 140.54167
-11.435884 -17.789171 1.558301 168.6389
15.173691 -39.735199 2.2999208 52.666668
16.706501 -39.32132 2.2490826 280.5
17.56941 -39.047581 2.8266046 121
18.473127 -39.609581 2.370698 101.44444
19.218372 -39.726479 2.8509958 307.5
-32.053928 6.4285526 1.5036347 453.41071
1.7031603 -18.575768 1.948272 65.300003
-16.790638 -38.210762 2.3024755 92
5.0875154 -38.066006 2.1934192 13
-13.309304 2.6267872 1.471169 454
35.004559 17.780025 1.0706716 303
-58.0224 44.630947 -0.44567999 484.11905
-4.3719907 6.946177 0.70659065 525.38892
5.3913488 2.9945657 1.3886545 360.59079
15.094715 -38.476582 2.7779307 127
16.600519 -38.029606 2.7451675 124
17.746649 -38.602852 2.5733936 230.66667
18.493683 -38.46981 2.8599825 305
19.206305 -38.589924 2.8834064 215.66667
22.858707 -38.33345 2.7404578 104
23.464766 -38.550598 2.7121739 105.5
24.24025 -38.349781 2.8436141 104.4
-52.327923 -37.518883 2.3653393 22
-33.420227 6.4576459 1.5743738 479.4433
28.115692 1.4296365 1.3475685 107.9375
-22.418207 -37.676483 2.4763184 18
-17.085098 -37.044605 2.9152834 87
-14.598973 -37.286678 2.4598289 225.33333
0.40568617 -37.417164 2.0722191 12.142858
4.8849626 -37.989079 2.1043482 14
5.5197625 -37.410263 2.2144518 12.5
6.1143188 -37.095074 2.2920928 11
4.0372014 5.0999441 1.1415883 250.82253
-17.977411 14.541521 0.88242757 492.33331
12.578087 -37.481564 2.6934316 145
13.158798 -37.726959 2.5893164 140.5
20.672792 -37.396698 2.6144419 104.8
21.394512 -37.446125 2.7671344 111
22.16449 -37.531292 2.5600891 107
23.647741 -37.545582 2.7614422 105.5
24.102741 -37.554817 2.8300076 104.5
-52.974449 -36.094223 2.1227481 29
-31.297518 -36.087234 2.0172324 6
45.711876 30.562708 0.68606722 233.9697
-7.1768122 6.0595965 0.86170685 184.88397
-4.7012243 50.701927 -0.42745373 408.57144
-26.023035 -5.8993645 1.0131512 189.22
-2.7775087 13.485999 0.88639772 284.95755
-19.077763 6.6575422 0.90192968 271.79288
-19.056732 -36.297501 2.1947584 459
-18.718731 -36.477207 2.1214979 459.33334
-17.597025 -36.659786 2.8182578 87.800003
-16.242262 -36.393211 2.4748213 181.88889
-15.307979 -36.337593 2.5883877 117.39286
-14.752456 -36.611668 2.5702896 103.35714
0.73535353 -36.83226 2.0857189 11.833333
4.6058841 -36.603313 2.4074352 21
5.667254 -36.921909 2.169523 13
14.720612 -36.720158 2.6647041 11
16.591764 -36.377197 2.7157555 12
17.165339 -36.674271 2.7536743 12
20.477022 -36.125084 2.4685211 108
21.623238 -36.379883 2.7832174 120.5
22.166067 -36.299809 2.8443425 114.66666
25.99638 -36.795036 2.8719783 104
26.515909 -36.707352 2.9137111 105.5
30.184105 -36.010365 2.5419996 94
32.762169 -36.647919 2.7685194 88.375
33.446213 -36.406685 2.598407 276
34.06583 -36.241848 2.2490609 473.66666
-17.489031 31.408678 -2.1915474 422.5
8.2864733 53.909252 -0.56663144 376.68268
-12.389217 36.99004 -0.018622771 315.05081
1.4135278 8.4312906 1.3620648 181.36749
-4.4330235 13.432992 0.98443991 279.40384
-1.9977185 3.7116656 1.2697625 250.95059
-21.70994 -35.566338 2.059046 22
-20.136322 -35.174271 2.1458743 459.5
-19.62661 -35.549992 2.1243188 459.5
-17.196083 -35.651615 2.5011806 465
-16.464041 -35.447498 2.5088615 338.33334
-15.626845 -35.636513 2.4748323 141.47058
-14.84668 -35.572582 2.5798883 101
-11.284191 -35.321281 2.3751163 458
51.875618 25.423964 0.7524119 210.20944
15.577606 -35.710377 2.6946535 11
20.887329 -35.241207 2.6476388 101.5
21.493238 -35.215092 2.7907352 162
22.675892 -35.420757 2.8274605 101.5
23.758148 -35.588104 2.54439 56
30.549133 -35.480179 2.5861754 89.821426
32.368416 -35.533432 2.6024911 228.78787
33.927433 -35.432579 2.2481782 474.5
34.337376 -35.465176 2.4063907 478.55554
-59.861797 -34.229496 2.2943034 6
-30.842224 -34.583168 2.0724614 17
-3.970309 21.6847 -0.58064103 348.81473
30.618422 19.403849 0.49378908 207.02107
-24.430124 -2.5151989 1.4755201 210.56667
-26.083004 -34.857903 2.214612 35
6.3923407 -1.560308 1.4744194 186.74072
-24.478151 -34.3064 2.0470963 27
-5.5282001 -6.1299605 1.4162656 292.89856
-20.55777 -34.441811 2.1341193 456.79999
-19.458284 -34.205936 2.5877132 345.33334
-18.736509 -34.72081 2.5778236 465
-17.326551 -34.407593 2.6848612 413.125
-16.221292 -34.629951 2.5355515 163.8
-15.625697 -34.390507 2.8755569 67
-13.513895 -34.371731 2.8204815 50.307693
-12.719164 -34.013058 2.9984627 19
-6.3705764 56.503113 -1.3955654 424.81818
14.963451 -34.744873 2.0205603 6
-4.7152095 56.536533 -1.2618271 430.66666
18.983307 -34.110771 2.444993 102
19.486584 -34.353622 2.676676 104.2
20.414402 -34.380566 2.550534 103.1
21.580278 -34.367317 2.6607864 120.5625
22.667868 -34.338139 2.8145094 114.2
23.211618 -34.219944 2.6939738 106
30.683119 -34.981483 2.6869106 93
32.935555 -34.895508 2.9534254 481
35.421154 -34.728867 2.2318377 472.5
-36.391533 -33.198509 2.6397235 41.5
-33.522343 -19.974396 1.7889122 111.84375
64.216766 31.618078 -2.3237915 376
-30.934475 -13.589753 1.5977261 222.91667
-32.414722 -33.748379 2.0101962 7
-28.978689 -20.055822 1.830368 154.44444
6.2360024 32.604969 0.083584815 274.55063
9.6396742 15.905299 0.25553665 204.08418
3.8626747 53.622864 -0.75397635 390.44116
-24.907362 16.294167 0.39532265 315.46298
-22.254257 -33.207378 2.2569811 459.33334
-21.447258 -33.520527 2.2449014 458.33334
-20.52284 -33.630672 2.2639515 452.33334
-19.501724 -33.785042 2.4123979 278
-18.75873 -33.857944 2.2364202 284.5
-17.27199 -33.552654 2.8612094 318.125
-16.981964 -33.203941 2.7526326 462
-15.62612 -33.32267 2.6592617 84.400002
-14.407304 -33.299988 2.7011058 253.23529
-13.463036 -33.413525 2.725414 157.83333
-12.649212 -33.443817 2.6768906 207.73685
-11.607916 -33.101845 2.5941923 97.699997
-1.4560223 56.925068 -1.5028971 456
-7.2112622 38.708061 -1.9302692 440.01251
-7.3157454 38.618153 -1.8469573 445.19974
-5.0420694 38.33807 -1.7708483 434.79721
-46.419743 3.4447601 1.7948353 472.625
15.376132 -33.396702 2.0178592 6
16.415751 -33.127621 2.0758915 62
18.972851 -33.325478 2.3714418 91
19.5842 -33.436207 2.6024632 116.4
20.426174 -33.611317 2.5361245 115.16666
21.469141 -33.660397 2.7209299 113.26316
22.557144 -33.494514 2.6834373 112.14286
23.19249 -33.28426 2.6336372 199.75
25.638525 -33.042572 2.6908226 106.75
26.633032 -33.2906 2.7194266 175.8
27.49118 -33.222973 2.3761744 396.79999
32.927158 -33.429897 2.0933185 475
34.544487 -33.119476 2.0511804 474
-30.438515 6.5490279 1.3383253 367.36905
-32.651409 -19.153677 1.6633673 154.05554
-34.591827 -32.679176 2.172554 22
-13.984916 13.385487 0.93171 195.81633
-24.031897 1.4936262 1.1099744 200.67857
38.468163 1.5813234 1.480112 107.31722
9.782608 42.00972 -1.4270319 407.64444
43.93256 1.5965773 1.3521595 210.5
-25.439568 -32.816639 2.0165629 17
-23.34495 -32.396095 2.3114593 344.57144
-22.484425 -32.483189 2.4540057 348.5
-21.688452 -32.678703 2.4417508 337.66666
-19.65077 -32.622967 2.2564056 339.33334
-18.735943 -32.46283 2.4410524 95.5
-17.333006 -32.005035 2.9107046 69
-16.567841 -32.469433 2.6948733 220.60001
-15.481974 -32.503693 2.5985439 389.5
-14.466568 -32.653893 2.6796997 161.3125
-13.498298 -32.427292 2.6095648 55.395348
-12.528852 -32.487591 2.6764042 78.666664
-11.618238 -32.52705 2.6737928 88.181816
-10.804177 -32.140137 2.4648628 103.8
-17.38018 20.462599 -2.6899214 456.4375
-14.731307 20.220772 -2.4597151 530.59186
32.54631 -3.1288042 1.3358135 105.19048
16.781397 -32.254185 2.2903533 100.28571
17.4492 -32.399502 2.3892612 119.83334
18.277023 -32.355946 2.5237226 139.58333
19.502558 -32.511852 2.2266843 109.66666
20.425428 -32.49622 2.5779254 187
21.573214 -32.432159 2.6480682 140.84
22.324238 -32.449211 2.7139657 114.24
23.544662 -32.532642 2.6915712 146.96001
24.536001 -32.405003 2.5264034 216.2
25.563015 -32.810249 2.6988549 150.13333
26.519308 -32.662487 2.5413635 88.881187
27.911911 -32.875504 2.251101 470.25
28.151152 -32.82066 2.5007603 473.5
35.707039 -32.765438 2.2562704 470
53.755329 30.307741 0.55255812 263.61957
-36.519711 -31.655876 2.3174984 21.333334
-18.898941 -6.6323891 1.3675213 156.86607
-34.290543 -31.142914 2.102119 31.5
-27.187923 -11.899368 1.5516714 135
14.313694 -0.57530499 1.6299932 156
-29.259144 -19.983219 1.8789682 107.34399
-58.560604 -14.550776 2.2840009 258.5
-31.983566 15.554469 1.1158472 464.21219
-21.504982 25.499014 0.29770848 442.51999
-25.210806 -31.004354 2.429523 459
-24.231716 -31.647263 2.3183093 459.5
-23.677631 -31.796276 2.4381208 455.20001
-22.477104 -31.524715 2.4741063 458.5
-21.306976 -31.199493 2.3473132 464
-19.458702 -31.686119 2.8290896 84
-18.398735 -31.813324 2.3985071 97.5
-17.665043 -31.395151 2.5680296 139.125
-16.588629 -31.500706 2.7162037 379.95999
-15.435225 -31.46014 2.664103 137.14285
-14.327566 -31.409048 2.6983979 73.900002
-13.464128 -31.573904 2.5310597 64.962959
-12.410743 -31.618574 2.6084363 75.146339
-11.410743 -31.586607 2.5638633 101.5
-10.727948 -31.698483 2.6224818 106.07143
6.7596698 -31.894285 2.9265931 10
-52.11108 21.779684 -2.3453131 510.08334
-51.644939 21.113592 -2.2747176 343.5
-44.48267 21.546976 -2.0965116 501
-12.289705 -14.224456 1.9178811 179.07895
16.463812 -31.272453 2.4842069 141.5
17.569178 -31.510656 2.5699344 141.33333
18.358667 -31.465729 2.6803334 143.10257
19.750898 -31.343328 2.6665986 125.8
20.652531 -31.477386 2.4759846 115.57143
21.500353 -31.304876 2.5611458 135.56522
22.425446 -31.45344 2.5355091 154.47368
23.643864 -31.583702 2.5826981 127.10526
24.577923 -31.771906 2.5620115 83.678574
25.339569 -31.598164 2.7053659 251.25
26.353937 -31.689524 2.553031 379
27.049366 -31.518112 2.438405 242
28.405083 -31.338394 2.5520549 242
30.834942 -31.751379 2.2876549 453
34.768204 -31.981342 2.1539307 471
43.067551 -31.204399 2.7583635 485
-3.5710833 66.368141 -1.20368 408.75
1.310751 18.552999 0.7374267 246.1048
-7.7469392 -4.677598 1.3925037 117.95652
-55.283405 -10.024837 1.6485376 190
-32.687534 -30.083473 2.2387872 15
-29.417799 -25.251923 2.1040528 74.227272
-1.7407696 33.104538 -0.088900521 306.3125
-27.408983 -30.069851 2.3606741 429
-26.514259 -30.323454 2.5216899 455.05884
-25.628206 -30.594713 2.5715499 460.45456
-23.808493 -30.193689 2.5262952 464
-22.149267 -30.904892 2.9521868 81
-21.51454 -30.511276 2.3014555 380
-20.54817 -30.350267 2.3680987 461.875
-19.925564 -23.000963 2.1448739 468.6875
-16.803898 -14.442329 2.0287406 137.84148
-12.658964 -22.194645 1.9381269 110.48608
-16.676064 -30.653015 2.4788456 87
-15.423073 -30.487307 2.687917 78.222221
-14.989198 -26.05736 2.2060075 98.411942
-13.513915 -30.496485 2.7273479 79.533333
-12.450082 -30.480862 2.6575911 69.430557
-11.597212 -30.427612 2.6823452 88.046509
-10.900691 -30.278788 2.7536731 103
-9.2262344 -30.443665 2.2399263 444
-10.529749 51.492821 -0.43356657 411.44897
25.568054 51.554138 -0.29996392 333.9259
8.0996828 -16.511965 2.0692804 195.02083
24.572357 18.695776 0.73430836 248.96025
16.635502 -30.126022 2.4848771 152.5
17.497528 -30.363106 2.4636357 128.68182
18.454445 -30.659294 2.5006642 129.16667
19.573996 -30.420547 2.4003162 115.3125
20.512066 -30.359657 2.5913515 139.54286
21.547949 -30.508497 2.5529354 164.92308
22.542994 -30.348278 2.5607655 99.672516
23.4244 -30.363348 2.5443096 148.47501
24.145237 -30.448433 2.4378414 473.375
25.573584 -30.474936 2.3135343 266.33334
26.099024 -30.246792 2.0859804 244
27.75703 -30.966015 2.9269085 243
28.386209 -30.656906 2.515425 242.33333
29.523325 -30.292116 2.6017992 244.66667
30.909107 -30.17535 2.9315948 248
33.25946 -30.608326 2.9516549 62
36.803005 -30.006947 2.9599531 60
37.163445 -30.163626 2.6519458 75.428574
-34.525967 6.5213532 1.629189 481.41177
-40.63118 -29.507044 2.100348 30
-32.609947 -17.471888 1.8076686 154.88889
-41.341064 -8.1807699 -0.36608157 151.1389
-0.39880371 7.5912743 1.11315 161.55496
-21.485918 1.7208773 0.97285014 154.02768
37.184223 50.085644 -0.59211874 318.71429
-30.489923 -29.705236 2.3757133 36.799999
-28.117889 -29.599102 2.4324315 429
-27.561447 -29.76354 2.4881513 449
-26.393591 -29.247871 2.4910512 463
-25.293753 -29.570543 2.6708982 452.33334
-24.440533 -29.599216 2.4169786 454.14285
-5.7436624 -12.848117 0.84840792 435.69202
-21.528049 -29.511908 2.4893093 291.42856
-20.492359 -29.687206 2.5953825 386.72726
-19.620924 -29.815691 2.8885677 324.33334
-18.350958 -29.503607 2.6748095 60.666668
-17.167297 -29.472488 2.74543 74
-16.501547 -29.553429 2.7527385 67.73333
-16.213274 -22.300385 1.9574674 125.14215
-14.529937 -26.316807 2.4198463 100.27742
-13.490464 -29.397373 2.6778288 72.541664
-12.846325 -28.799564 2.6548662 72.238464
-11.707934 -28.745302 2.5516939 61.32
-10.883271 -29.328285 2.8620179 95.4375
18.783262 51.868755 -0.30549201 351
21.410421 51.278301 -0.36404178 340.35184
9.871273 -29.018467 2.2887325 133
10.068307 -29.078735 2.1634197 124.5
11.432671 -29.004902 2.631568 463
12.584033 -29.256149 2.1435146 119.5
13.738754 -29.260288 2.5025804 227.60001
14.559788 -29.51725 2.4910941 154.47058
15.281789 -29.444727 2.4671314 154
16.664173 -29.384459 2.4834642 145.2
17.581375 -29.478825 2.3953457 124.31579
18.313826 -29.335714 2.4511824 139.86111
19.408632 -29.562551 2.4877443 155.11476
20.674784 -29.366409 2.4818347 127.37037
21.650444 -29.464838 2.569129 120.60784
22.500723 -29.560873 2.6042418 149.63077
23.342136 -29.442368 2.6562736 138.32353
24.430994 -29.378204 2.4169414 318.33334
25.264858 -29.552811 2.3659608 241.75
26.750017 -29.321735 2.3000362 241.75
27.261784 -29.509796 2.1841369 284
28.609068 -29.631269 2.6225245 238.33333
29.183783 -29.40226 2.540514 240.66667
31.1695 -29.133751 2.3950949 82
32.888783 -29.054428 2.4650605 86
33.169308 -29.015245 2.0202489 453
34.817715 -29.115511 2.5673747 77
35.467148 -29.368515 2.6456954 68.571426
36.449066 -29.658209 2.8014629 66.36364
39.413952 -29.836441 2.9234881 61
-40.975616 -28.887592 2.2102902 17
-39.54007 -28.362888 2.1940997 17
-36.520775 -28.642651 2.5707977 18
-35.538181 -28.189899 2.0041351 29
-21.917843 21.261297 0.49759623 287.29044
-33.702274 -28.757719 2.1285081 32
-32.536102 -28.736931 2.253305 15
-31.23295 -28.170002 2.1749885 442.39999
-30.383942 -28.402651 2.1977258 440.125
-29.675714 -28.710745 2.4154363 445.16666
-27.672285 -28.176083 2.6649158 452.5
-28.773193 -20.7057 1.8117869 339.9176
-25.967604 -28.158344 2.8710554 54
-24.176474 -28.654366 2.3418126 235
-23.395788 -28.559706 2.4107411 358.75
-22.519936 -28.780182 2.2921426 433.30768
-26.928143 -3.7498789 0.41177559 478.875
-20.549812 -28.783104 2.9415843 38
-19.311432 -28.486708 2.6679792 68.666664
-18.332653 -28.552683 2.8270876 52.599998
-17.626459 -28.541674 2.9482212 25
-16.495941 -28.469738 2.7565608 82.75
-15.880768 -25.250643 2.5597184 115.16875
-14.743568 -27.5098 2.480124 78.888885
-13.337519 -26.340647 2.5178559 56.422222
-12.717462 -23.221605 2.2586184 68.355469
-11.801269 -23.868189 2.3499753 77.429855
-10.569987 -28.260656 2.3948259 302.5
20.480808 51.416023 -0.38140541 347.74527
9.7212019 -28.699135 2.2608392 123.83334
10.444969 -28.389574 2.3503571 170.10527
11.516373 -28.435228 2.601177 219.46153
12.516937 -28.427708 2.3441081 139.60001
13.609504 -28.553291 2.4768255 186.81818
14.471663 -28.489132 2.4577348 134.54054
15.45608 -28.445429 2.4377213 148.57895
16.843124 -23.230974 2.1322401 157.60417
17.716034 -28.521065 2.4580023 136.61111
18.476097 -28.515812 2.5112827 87.976959
19.39982 -28.595034 2.5376241 199
20.51642 -28.463511 2.551584 149.13559
21.460571 -28.505903 2.557631 140.63637
22.527258 -28.607683 2.6651046 176.7
23.483435 -28.453615 2.6707635 165.03226
24.322838 -28.554501 2.7584486 180.8
25.46455 -28.196051 2.7223969 223.75
26.83098 -28.762039 2.0811667 239
27.554052 -28.654362 2.2983134 266.375
28.418066 -28.488068 2.5273974 260.90909
29.257502 -28.825596 2.8084903 248
30.453854 -28.209982 2.1177192 457.25
31.340149 -28.450535 2.4088557 154.39999
32.731632 -28.277649 2.396343 78.928574
33.516521 -28.325668 2.5531068 86.455879
34.481586 -28.73385 2.67818 66.580002
35.265629 -28.409395 2.6552038 60.384617
36.610107 -28.731739 2.522454 70.800003
37.883762 -28.952011 2.4964464 69.666664
38.95562 -28.265293 2.6154013 485
39.444756 -28.082893 2.530304 483.5
48.553116 -28.407455 2.8113232 59
49.734516 -28.915985 2.8470445 59
-46.583607 -27.697529 2.1648793 6
-36.011543 -27.459244 2.1527967 17
-35.467953 -27.84675 2.1001325 23.5
-32.423767 -27.357651 2.2950375 442
-31.669317 -27.864124 2.1831779 441.5
-29.190052 -27.117739 2.5772924 461
-28.267635 -27.555443 2.0336244 45
-1.1018206 -9.9284105 1.8519139 383.17007
-26.093636 -27.927063 2.5645792 47.333332
-25.481884 -27.446346 2.2880695 269.71429
-24.906183 -27.246758 2.3867865 18
-23.211279 -27.419912 2.872066 63.599998
-22.376764 -27.297056 2.8946645 65.333336
-30.414732 -0.73563766 1.7962768 269.4375
-20.256771 -27.145279 2.912935 41.5
-19.412546 -27.45446 2.5556259 92.25
-18.17197 -27.379726 2.4682524 74.75
-17.562941 -27.446291 2.6943703 48.46154
-16.297802 -27.308044 2.7006559 57.133335
-15.442019 -27.370893 2.7579536 62.666668
-14.947045 -25.635921 2.49492 70.55732
-13.820233 -24.482582 2.37027 79.214218
-12.029641 -18.674587 2.08075 87.772484
-11.538465 -24.411682 2.4907413 53.991936
8.7031078 -27.463457 2.5368211 102.66666
9.6001606 -27.437445 2.4327824 141.06122
10.554051 -27.505831 2.3690486 155.17857
11.42534 -27.388884 2.5031202 146.06154
12.495589 -27.433876 2.3648016 161.61539
13.468326 -27.416943 2.5545974 108.4
12.277252 -25.220461 2.4414482 132.30057
15.520727 -27.376947 2.4781542 201.96202
16.454363 -27.391357 2.5119414 159.65384
17.592253 -27.478027 2.489934 131.95294
18.565407 -27.522451 2.4918292 140.925
19.43453 -27.499104 2.5499275 169.32539
20.490395 -27.463367 2.5984273 166.57576
21.596161 -27.340368 2.5767698 155.68115
22.42535 -27.442032 2.5740547 173.89743
23.510054 -27.398813 2.6747525 175.2683
24.451368 -27.473656 2.6380992 165.58064
25.16975 -27.490459 2.7871163 415.60001
26.495947 -27.165125 2.7994471 180
28.611206 -27.373558 2.3957534 182.125
29.690514 -27.605858 2.3917818 257.75
30.563457 -27.312857 2.3601725 296.57144
31.558895 -27.289566 2.4770992 84.68132
32.526363 -27.652946 2.4625292 98.894737
33.550018 -27.569492 2.7013822 74.037041
34.571068 -27.640202 2.6560187 53.57143
35.44083 -27.142899 2.8536146 65.5
36.258366 -27.866283 2.4075382 79
37.661312 -27.658033 2.7972593 466.5
38.238331 -27.682539 2.917052 63.833332
39.804302 -27.81982 2.4510174 482
42.461353 -27.075207 2.8785124 60.5
45.472267 -27.368626 2.6021781 58
46.27272 -27.203228 2.734652 59
-46.503571 -26.143675 2.1610239 6.5
-32.707706 -16.903717 1.8677 76.041756
9.4349451 58.518284 -0.26718399 357.66666
-37.864773 -26.17572 2.4261727 15
-35.146797 -26.484924 2.5022078 227
-34.422764 -26.2701 2.7052493 446.75
-33.485962 -26.641987 2.5613031 447
-29.173031 -26.647598 2.3445008 451.60001
-28.498192 -26.266186 2.5354006 461
-27.793432 -24.336605 2.4626966 399.79974
-34.088062 9.4054451 0.67015302 368.69611
-18.830257 33.386765 -0.18010867 337.38461
-22.15122 -26.087025 2.47523 85
-21.836 -26.332067 2.3647292 56
-20.72987 -26.684534 2.9255369 63.090908
-19.115355 -26.734987 2.6725264 69
-18.413816 -26.394924 2.6839597 69.555557
-9.4287415 -7.2682338 1.8216372 145.89069
-16.457443 -26.497648 2.6734784 64.590912
-15.522999 -23.661636 2.4786158 67.65023
-15.045021 -22.713747 2.3888605 81.760025
-13.397343 -25.532145 2.5168836 85.488892
-12.442451 -26.715658 2.5848775 59.923077
-11.887742 -26.840757 2.7284725 48.92857
0.44083163 14.373931 0.91333818 91.986137
1.1282043 69.435257 -5.4866905 456
-5.635932 69.984467 -5.6881504 476
7.8854446 -26.408369 2.4429688 113.33334
8.5609093 -26.448784 2.5664554 113.17647
9.4959335 -26.351868 2.4010954 129.36363
10.582255 -26.613375 2.5371704 145.49181
11.437363 -26.522066 2.49664 121.89394
12.575558 -26.380566 2.5767524 105.45071
13.53929 -26.485535 2.5821605 131.15942
13.529481 -24.237041 2.4044931 96.914948
15.527319 -26.59391 2.5095918 156.44444
16.479492 -26.351946 2.4837933 184.56818
17.56633 -26.418568 2.5076084 148.88235
18.486568 -26.398933 2.5174704 173.98276
19.483322 -26.460573 2.5643353 180.05692
20.500145 -26.645664 2.5879123 163.05618
21.501209 -26.440443 2.5579743 158.65746
22.450878 -26.343628 2.6150677 176.08749
23.529337 -26.375046 2.6549783 186.5567
24.430277 -26.452852 2.6938605 201.77884
25.450369 -26.351831 2.5676131 355.33334
26.641407 -26.181732 2.3735039 384
27.699957 -26.342922 2.6497903 409.75
28.597332 -26.290369 2.280719 187.95653
29.514816 -26.269186 2.3744678 99.971832
30.489037 -26.595699 2.4529936 88.542854
31.420084 -26.391245 2.5569739 73.773582
32.26038 -26.71566 2.5552466 118.51515
33.332207 -26.608299 2.3778176 55.923077
34.236931 -26.636259 2.3639841 50.722221
35.540253 -26.946968 2.7409649 59.375
42.821846 -26.452248 2.8789513 61.25
43.324223 -26.112848 2.7531898 59.599998
44.461971 -26.443247 2.7426069 59.076923
45.544315 -26.563427 2.6145256 58.285713
-45.540951 -25.843586 2.1582007 6
-44.734592 -25.868408 2.1457717 6.25
-40.170181 -25.182934 2.6010294 18
-38.404697 -25.158573 2.1064348 30
-36.899864 -25.876526 2.4067271 15
-35.148117 -25.830404 2.6605437 441
-34.912113 -25.797352 2.6683633 442.5
-33.338867 -25.600664 2.6965454 447.125
-32.544159 -25.640318 2.6298604 445.26315
-31.754274 -25.289337 2.6417048 451.16666
-30.280523 -25.208853 2.3293204 446.60001
-29.735361 -25.337612 2.5363047 454
-27.410465 -15.346312 1.968322 451.375
-18.983528 27.180563 0.21605162 350.81415
-25.64757 -11.57278 1.3270597 184.92361
-25.894569 -25.550449 2.4841754 46.5
-23.136679 -25.486732 2.7966168 78
-22.501158 -25.879894 2.6975987 81.5
-20.499681 -25.344093 2.6871548 54.333332
-19.56716 -25.295193 2.3837128 82.5
-18.576527 -25.928089 2.8956482 61
-17.585892 -25.734436 2.7258506 65.25
-16.431267 -25.625765 2.6491239 67.448273
-15.362197 -22.956509 2.5312421 67.711502
-15.59226 -20.251537 2.3390231 82.211586
-13.52959 -25.579788 2.3491528 99.629631
-12.842344 -25.776201 2.6154821 98
-10.41211 -25.313026 2.3859439 469.5
-9.5647192 -25.431803 2.0546248 466.33334
-6.5430455 70.78331 -5.4340367 462.84082
-13.596167 71.642883 -5.7874212 478.5
7.6627636 -25.765621 2.404268 97
8.603878 -25.58923 2.2381909 104
9.4628048 -25.561758 2.4515178 129.66667
10.419992 -25.408085 2.5195594 136.04109
11.455003 -25.550259 2.4220068 197.40678
12.449665 -25.588522 2.5171788 149.41936
13.662427 -25.402439 2.5817633 136.15218
13.290405 -24.304729 2.4447708 137.03716
15.571186 -25.571739 2.5236375 156.21053
16.656578 -25.465435 2.4965439 173.37788
17.559723 -25.563238 2.5000904 161.16017
18.422558 -25.66045 2.5152509 177.19862
19.312357 -25.736032 2.5935147 203.54546
20.412895 -25.729187 2.617116 321.60001
21.547928 -25.760267 2.6156085 246.20634
22.667925 -25.747353 2.6983345 198.35484
23.396004 -25.776443 2.6394155 203.03448
24.710808 -25.870874 2.5524168 463.5
25.502686 -25.424198 2.5167906 230.60715
26.525311 -25.627071 2.5661426 279.33334
27.620373 -25.287598 2.4734757 56.698631
28.498362 -25.608669 2.4739254 68.514854
29.389013 -25.511286 2.5432124 75.747665
30.821888 -25.720854 2.4042516 79.071426
31.387619 -25.355101 2.4777532 50.112904
32.181786 -25.672722 2.2937107 55.5
34.357109 -25.763014 2.4272673 252.5
35.377041 -25.142403 2.7886925 460
37.788528 -25.173618 2.8245082 363
38.246597 -25.139854 2.7078142 249
40.507595 -25.100409 2.4255383 62.5
43.307945 -25.805975 2.6787832 59.090908
44.634678 -25.349585 2.443275 55.200001
45.666885 -25.35639 2.5455883 58
-41.020924 -24.577824 2.0991197 7
-38.30069 -24.576401 2.5425501 236
-36.205765 -24.31131 2.718996 442
-35.426865 -24.484087 2.7482996 443.33334
-34.917786 -24.473606 2.8134353 450.75
-33.993484 -24.898088 2.8523321 459
-31.33919 -24.577461 2.4851885 444.45456
-30.660059 -24.79812 2.3760786 448.54544
-28.757999 -24.952845 2.0029869 30
-3.5616856 38.093708 -0.26657724 321.60385
8.5470238 53.949638 -0.83257914 402.10001
-23.575878 -24.601048 2.3557606 42
-22.229893 -24.043077 2.9252422 16
-20.650009 -24.684898 2.4955487 53.799999
-19.664812 -24.530273 2.6338744 63.583332
-18.45299 -24.350395 2.7221117 59.833332
-17.391558 -24.422567 2.6578627 66.222221
-15.368182 -21.55389 2.5036159 106.63362
-15.102948 -23.477013 2.5291255 74.843216
-14.251006 -20.645529 2.3543251 85.217361
-13.669723 -24.594851 2.3152201 120.54546
-10.361281 -24.738997 2.863271 474
7.6791639 -24.443859 2.644515 104.09091
8.4919662 -24.426466 2.5701447 141
9.5720167 -24.470474 2.4823902 92.113205
9.2270174 -21.212147 2.3621349 85.538521
11.572075 -24.552916 2.4074597 258.53571
12.634216 -24.484671 2.3916578 176.72093
13.645393 -24.454948 2.455792 166.43396
14.490202 -24.383533 2.3361208 162.57143
15.541192 -24.352434 2.4462328 170.32204
16.450096 -24.444902 2.4390142 179.37038
17.403395 -24.550692 2.5343158 312.70001
18.27191 -24.548433 2.5670087 409.16666
20.016792 -24.892548 2.5851169 464
21.741409 -24.157116 2.4682236 40
22.752182 -24.687719 2.6405001 37
23.362297 -24.431362 2.3419385 51
24.28565 -24.345724 2.211062 57.833332
25.619871 -24.255751 2.3640025 51.089287
26.567923 -24.610725 2.4633324 47.968086
27.195745 -24.640495 2.5004401 46
28.553799 -24.656549 2.4511473 48.185184
29.516241 -24.561489 2.4476531 47.670731
30.186623 -24.601133 2.2399156 51.909092
31.349545 -24.951782 2.5402951 42
34.481651 -24.691811 2.8294473 242
35.45364 -24.227108 2.7451978 332.20001
36.659496 -24.525915 2.5985792 249
37.628227 -24.130337 2.5843012 92.714287
38.962952 -24.382914 2.8382635 63
39.354946 -24.263889 2.566088 62.846153
40.529549 -24.492147 2.469522 71.416664
41.612919 -24.553507 2.2500679 57.666668
42.026768 -24.206249 2.3356404 54.5
44.875656 -24.481567 2.4250181 55.200001
45.637894 -24.70319 2.526279 58
-37.024338 -23.197247 2.837738 442
-36.561157 -23.26832 2.8926017 442.33334
-33.200249 -23.61581 2.5948849 444.20001
-28.369692 -23.912996 2.4069564 18
-27.515463 -23.280159 2.3886414 18
-26.947044 -23.345985 2.087877 22
-24.358183 -23.200485 2.4796841 21
-22.479 -23.729422 2.5683637 31.5
-21.64522 -23.600037 2.7367532 59.857143
-20.429411 -23.317812 2.6249526 137.34782
-19.558819 -23.473299 2.6531498 231.77272
-19.767279 -20.266914 2.3855267 46.065708
-14.36357 4.7355747 0.68331897 150.52948
-14.605997 -16.038448 2.2913735 85.464577
-14.064996 -19.211634 2.3890853 85.737854
-14.587038 -21.636681 2.4009326 98.769547
-13.938519 -23.110558 2.0674753 88
5.9384279 -23.286283 2.3089027 106
6.5268569 -23.477301 2.5535214 103.97916
7.5233407 -23.436203 2.5478992 107.07143
8.529747 -23.546652 2.5599906 114.91666
9.6455851 -23.772015 2.5334811 117.18919
10.406617 -23.73679 2.5235541 115.28571
11.466559 -23.641689 2.4303503 118.7907
12.507665 -23.548716 2.4354413 155.66197
13.40838 -23.557861 2.3414433 141.35938
14.687091 -23.556356 2.406781 175.8372
15.492325 -23.647608 2.4019606 155.98096
16.358948 -23.78171 2.4159169 178.31035
17.410923 -23.537783 2.8016005 461.60001
18.242334 -23.736212 2.6432898 464.57144
19.889679 -23.43125 2.6344483 30.333334
20.316753 -23.388447 2.3012938 45.5
21.758434 -23.523251 2.3674383 46.25
22.482512 -23.606298 2.474613 42.222221
23.73613 -23.227749 2.2996171 48.39394
24.558252 -23.461502 2.3475957 47.619049
25.395359 -23.443958 2.4764993 42.634617
26.416565 -23.481554 2.4005332 41.049999
27.501217 -23.41905 2.3961666 38.333332
28.763002 -23.802111 2.3782394 38.375
29.522549 -23.712358 2.2058566 41.875
31.736444 -23.637978 2.3458998 240
32.563671 -23.513458 2.7024016 243.85715
33.749058 -23.301914 2.7394233 297.75
34.356079 -23.425037 2.5784254 351.75
35.591148 -23.440121 2.769685 405.25
36.477074 -23.308121 2.4014325 56.25
37.415031 -23.534662 2.6341839 63.625
38.344727 -23.471321 2.4142842 81.631577
39.568413 -23.730181 2.3567913 85.133331
40.21254 -23.535875 2.0133746 63
41.189774 -23.721865 2.2512765 52
42.277813 -23.432085 2.328063 54.799999
45.20459 -23.767557 2.4059992 55
-43.208725 -22.117739 2.7689109 537
-36.412067 -22.150513 2.9606462 443
-35.414406 -22.529211 2.8157628 443.20001
-33.81488 -22.42222 2.144316 45
-28.446325 -22.225885 2.3944902 18
1.5682178 34.550217 0.14718732 283.65607
-24.720371 -22.324623 2.338073 18
-22.341591 -22.180338 2.8319724 36.833332
-14.584428 -10.60828 2.0128808 84.206963
-15.918139 -9.2861595 1.7125165 222.79974
-19.455776 -22.585913 2.4500203 57.272728
-18.382584 -5.6279874 1.7724539 122.44286
-18.217278 -18.86598 2.477489 93.09848
-15.228267 -18.511457 2.4207032 61.171463
-14.430526 -9.9635677 2.0057423 111.3512
-14.296145 -20.366348 2.4886231 113.48185
-13.80425 -22.333918 2.6269784 65.875
6.422471 -22.545961 2.4988847 112.07692
7.661386 -22.487249 2.5145431 110.625
8.4561224 -22.466587 2.6193311 96.4375
9.4345293 -22.343058 2.4282537 79.666664
10.399659 -22.672636 2.4383075 62
11.451989 -22.551579 2.6591229 144
12.586406 -22.37286 2.3311341 138.29411
13.669367 -22.535316 2.4130778 182.51724
14.461044 -22.660542 2.3127048 191.3
15.287457 -22.703911 2.3964555 317
16.530558 -22.579821 2.5122476 463.60001
19.616297 -22.787451 2.0809593 53
20.615543 -22.512272 2.3526058 43.523811
21.652102 -22.272139 2.4002459 40.166668
22.501049 -22.392372 2.439409 38.315788
23.556091 -22.518341 2.422843 39.98077
24.681904 -22.672783 2.4368956 37.885715
25.242565 -22.362453 2.4765463 32.846153
26.327555 -22.725412 2.6013474 30.125
27.700418 -22.431915 2.3605788 26.4
28.644957 -22.525827 2.0244324 35
29.422676 -22.392881 2.0885324 33
31.816706 -22.371334 2.3714085 157.5
32.312126 -22.338787 2.4734342 86.508476
33.501087 -22.330339 2.5961189 77.230766
34.441597 -22.404564 2.3276765 82.555557
35.563126 -22.410398 2.6267011 81.120003
36.524178 -22.456533 2.3684738 69.512192
37.456261 -22.650732 2.1527777 72.433334
38.274658 -22.743166 2.1313546 52.142857
39.274254 -22.477587 2.1551309 50
40.137947 -22.63114 2.2506142 55
41.754776 -22.527985 2.2414191 52
42.642036 -22.606894 2.3056393 54.200001
43.15765 -22.048687 2.2831137 53
-43.628654 -21.838667 2.7397876 536.5
-42.706093 -21.658379 2.7335603 537
-36.649376 -21.836649 2.9259019 440
-34.60815 -21.558136 2.2514532 21.833334
-33.455139 -21.604145 2.3192024 20
-10.666661 57.649426 -1.2164724 435.33334
-29.37595 -21.526421 2.4146769 18
-28.702333 -21.458557 2.2542174 16.666666
-27.459835 -21.321785 2.1453176 25.777779
-7.6301351 31.167624 -0.28195369 281.13333
-25.384857 -21.117397 2.0718975 22
-24.734489 -21.253902 2.1118584 131.25
-23.168121 -10.987641 2.3499005 80.299004
-23.132029 -17.108099 2.2338865 63.657501
-21.384745 -21.703949 2.7735987 62.599998
-20.43264 -21.445105 2.5502768 78.75
-19.246618 -21.54294 2.7733073 26.700001
-16.395336 -15.936456 2.1631351 145.72682
-15.840837 -14.897798 2.2922568 104.97485
-12.935165 -15.483276 2.3436434 125.49309
-14.372146 -14.881166 2.1518362 99.782257
-14.538291 -21.549587 2.5318213 73.31765
-13.833309 -21.709015 2.5678425 67.685715
-3.7854259 -10.031285 2.1657465 153.92857
7.6700335 -21.523975 2.6118293 66.03125
8.4041796 -21.76956 2.5326893 88.227272
9.275938 -21.852541 2.4599884 13.5
10.333032 -21.952475 2.8161621 115
11.727712 -21.61767 2.5526767 102.88889
12.310416 -21.642189 2.5340087 107.88
13.445831 -21.579851 2.5938094 462.90909
14.493828 -21.293159 2.5208924 359.29413
15.04375 -21.127071 2.3355882 462.5
16.080261 -21.952641 2.6575189 460
17.977949 -21.09284 2.4017682 32
19.76228 -21.128605 2.3349767 36.57143
20.632994 -21.413963 2.3894145 37.759998
21.566763 -21.630112 2.3951707 37.981819
22.566071 -21.609901 2.4804347 31.681818
23.461565 -21.480469 2.5065081 29.632652
24.105427 -21.538908 2.5208373 23.454546
25.149794 -21.894842 2.5543578 26.666666
27.795341 -21.54994 2.3094556 27.666666
28.480799 -21.601471 2.551358 23
29.391693 -21.620415 2.3740489 27
31.435766 -21.246601 2.3501389 61.5
32.431526 -21.529371 2.2852783 66
33.461433 -21.516235 2.5363824 58.48148
34.590302 -21.594131 2.4094896 60.591396
35.398087 -21.699224 2.308784 55.065575
36.394741 -21.758247 2.2006266 147.15384
37.316673 -21.305786 2.1110432 106.71429
38.869362 -21.736071 2.1376925 49.333332
39.424953 -21.503645 2.1145864 48.5
40.480953 -21.471457 2.2112684 53.333332
41.309391 -21.032036 2.4423769 201.66667
42.28281 -21.649311 2.2363696 52
-42.506313 -20.59487 2.5556643 538.66669
-41.487877 -20.326796 2.6492777 539.09088
-40.415241 -20.36681 2.6057646 541.21429
-39.648899 -20.653524 2.7437646 538.45453
-38.35294 -20.306828 2.801187 539
-36.611637 -20.098068 2.0649252 7
-34.603317 -20.204399 2.1587508 39.333332
-33.412392 -20.516769 2.1434007 34.5
-29.405956 -20.079329 2.3216403 15
-28.698635 -20.702938 2.5687125 17
-27.937931 -20.471155 2.7009354 20
-26.31283 -20.238317 2.3967628 24
-24.780897 -14.643503 2.0105128 180.85347
-6.7737927 14.416787 0.86712587 224.37105
-23.487377 -20.284731 2.4247851 16.285715
-22.494465 -20.517178 2.4557257 25.76
-21.391899 -20.393486 2.5778959 24.125
-10.586947 -5.6564889 1.9985046 99.503899
-13.568975 -4.8904958 1.7020912 123.71944
-13.325145 -0.21659555 1.5545402 152.65663
-13.462595 -9.4699717 2.2193387 115.53546
-16.248131 -16.180897 2.1934156 134.87939
-15.086445 -19.29192 2.4191096 96.651962
-14.664827 -20.730196 2.5309069 84.178574
-13.921688 -20.796661 2.5802741 76.75
-57.214272 31.592319 0.29226267 482.75
21.885599 -7.2031469 1.9062052 115.28261
11.21107 -20.663599 2.6863983 114.66666
12.24275 -20.959641 2.7990386 115
13.498931 -20.60601 2.4759872 242
5.2157655 -0.1215922 0.86819172 299.44446
8.7188473 10.048457 0.12816755 163.87878
16.487122 -20.270874 2.7457261 15
17.693521 -20.199696 2.4690773 25.208334
18.216833 -18.842657 2.4728692 28.558704
21.129574 -18.321033 2.4852202 34.222733
20.502451 -20.404411 2.5012929 19
21.655527 -20.560497 2.6094284 19.692308
22.508604 -20.708746 2.6653028 19.161291
23.480732 -20.64847 2.4723198 19.142857
24.075274 -20.796217 2.1126149 18
27.821655 -20.347446 2.3091052 27.666666
28.938374 -20.608089 2.0196943 35
29.623438 -20.341839 2.5492442 43.849998
30.372965 -20.100006 2.556751 48.534885
31.451656 -20.326603 2.4150786 60.439026
32.692532 -20.204205 2.2930851 46.941177
33.559078 -20.625334 2.1886833 53.242424
34.319038 -20.700012 2.1116495 47.294117
35.302536 -20.338247 2.0354226 42.666668
36.307499 -20.198563 2.0649805 41
37.692921 -20.592869 2.0662711 46.200001
38.419273 -20.444941 2.069212 47.400002
39.757057 -20.672991 2.1584702 50.5
40.367771 -20.39995 2.2428343 112.85714
-44.135479 -19.167982 2.2115602 542.33331
-43.287159 -19.690519 2.5302835 538
-42.369072 -19.60701 2.3937521 541.88892
-41.730061 -19.530794 2.4369457 541.59998
-40.354198 -19.882271 2.6049073 540.5
-39.253986 -19.475502 2.6323743 278.5
-38.623165 -19.565071 2.4163716 34.666668
-37.60331 -19.719278 2.0701776 8
-36.948719 -19.058407 2.4495375 34
-20.821367 -12.219583 2.1184938 33.734383
-30.497356 26.44919 0.69364715 461.52274
-28.238092 -19.439453 2.178663 31.6
-27.322203 -19.886356 2.3933649 319.16666
-19.263493 -8.5297842 1.7829953 74.64286
-25.129917 -19.659121 2.0577765 31
-5.8658137 -7.8154206 1.9462726 69.504547
-10.392819 4.7650943 1.3794971 144.74139
-22.292475 -19.355255 2.6688194 76.73333
-25.682411 -17.626432 2.4744349 65.5625
-20.50289 -19.408434 2.5868781 23.083334
-18.800335 1.2943662 1.3567652 166.54396
-23.804754 0.51768672 1.9114463 133.0549
-18.450977 -11.079501 2.1709542 98.427673
-16.507221 -13.976456 2.0919287 116.04922
-16.070858 -18.067219 2.4028385 104.90171
3.2245479 26.0695 -1.4007542 232.60001
-2.5365248 -3.9171691 1.2288016 129.30652
8.7114534 35.180756 0.24029207 258.33334
-19.495903 -2.1443532 0.7157492 183.20833
14.658844 -19.216146 2.2515457 22
9.4673491 -7.3011565 1.7616769 150.40869
15.692024 -15.567772 2.1393178 54.185184
17.431616 -19.79763 2.4912903 23.120001
16.931826 -18.468754 2.3785162 38.433334
19.651171 -19.47908 2.5336308 44.84375
15.296802 -16.144823 2.4351487 55.775585
21.985359 -19.333776 2.1000824 21
22.626366 -19.663862 2.2048228 20
23.44776 -19.529934 2.2367401 18.6
26.611692 -19.218006 2.8041046 20.285715
27.518368 -19.432089 2.680295 132.75
28.319307 -19.431032 2.463933 49.805557
29.196754 -19.277925 2.3409929 48.375
30.35078 -19.531698 2.416883 51.969231
31.439774 -19.531364 2.1936038 49.78125
32.137764 -19.927446 2.1138892 54
33.612823 -19.806843 2.0328653 40
34.461498 -19.535376 2.0429795 40.666668
35.513039 -19.584888 2.0415862 43
36.399681 -19.361637 2.0604544 43
37.631126 -19.374949 2.4457808 46.200001
38.543839 -19.578241 2.4178307 46.875
39.310097 -19.668522 2.0880592 47.400002
40.03281 -19.926859 2.1459432 50
-47.034019 -18.27478 2.6256332 527
-45.231346 -18.397152 2.7140026 530
-44.473911 -18.415884 2.5642569 532.75
-43.730015 -18.537636 2.6197042 534.90912
-42.440704 -18.60656 2.8429298 533
-39.055752 -18.43281 2.2589345 43
-38.570019 -18.694954 2.2860518 36.666668
-22.528238 -10.638327 1.9576559 50.73373
-36.531448 -18.228569 2.7392159 353.5
-33.444054 -8.3395824 2.074928 139.71469
-21.775301 19.906441 0.66063327 302.172
-24.11338 -6.5762177 1.6150314 104.86316
-30.817463 -18.067646 2.7898378 536.5
-29.02359 -18.385891 2.3820188 49
-26.358896 -6.5655975 1.7371635 100.875
-17.909403 -14.938693 2.1045415 51.120373
-26.444895 -18.353092 2.1739337 33.375
-25.418674 -18.686886 2.1867161 28.25
-24.606707 -18.344658 2.2554188 30.076923
-27.291929 -4.767097 1.8571658 115.63683
-22.256081 -15.664383 2.4356453 54.368504
-21.230839 -18.467216 2.3031476 30.466667
-17.734077 -14.816449 2.2927396 59.382004
-19.333637 -18.541523 2.7822976 29.75
-19.914501 -13.742242 2.126653 73.583336
-18.323162 -14.602562 2.3067415 58.563889
-17.797022 -16.842724 2.5590932 54.528847
-11.088095 -18.070148 2.2804 80
-10.440475 -18.274027 2.3637109 76
-9.329031 -18.451094 2.3645046 86.972977
-8.9447117 -18.038858 2.2629025 84
-7.8072405 -18.336565 2.5615799 453
-6.5985079 -18.325264 2.6156316 462.5
7.4814477 -0.17668016 1.1778146 118.49641
12.696935 -18.524614 2.2803216 19.428572
6.7500105 -8.0886488 1.0848354 122.76374
9.3615389 -6.9883571 1.5172538 121.2315
9.0917664 -5.6821418 1.6555816 115.34301
11.734076 -11.099449 2.0085132 64.759789
17.283367 -18.36956 2.4252751 71.111115
13.853915 -14.240678 2.2163754 60.447235
22.352367 -18.49157 2.1321778 20.5
23.283777 -18.448374 2.2957401 19
24.170923 -18.423676 2.0862541 18
26.908064 -18.80077 2.5698037 30.5
27.453136 -18.482447 2.6455517 30.392157
28.419464 -18.321529 2.3978484 55.354168
29.3692 -18.671785 2.3007421 45.204544
30.243172 -18.828669 2.3680243 39.64706
31.523457 -18.470898 2.031899 36.799999
32.177505 -18.349131 2.0227065 39
34.937038 -18.885132 2.0655065 40
35.70813 -18.599066 2.0768979 40.5
36.537136 -18.600567 2.1103582 91
37.374752 -18.63763 2.0851963 43
38.330109 -18.943689 2.3800426 269.5
43.767609 -18.318453 2.3030999 92.333336
45.622753 -18.021336 2.976655 475
47.85289 -18.835781 2.3518896 86
-52.363018 -17.429089 2.1325595 532.5
-51.025967 -17.581284 2.3601909 527
-47.295101 -17.180023 2.7759578 519.5
-46.687954 -17.527628 2.4826643 530.72729
-45.432995 -17.535507 2.5773528 530.75
-44.617794 -17.388908 2.4871984 529.88892
-43.813747 -17.233282 2.6457114 532
-42.949783 -17.252962 2.6745889 532
-39.05957 -17.879274 2.5275226 30
-38.49556 -17.553566 2.2068138 31
-37.277782 -17.468842 2.2702036 43.5
-17.224514 -7.7282395 1.7898674 77.111763
-35.521873 -17.373587 2.5731475 42
-21.282232 -10.3376 1.866508 51.740082
-25.285212 -13.892114 2.1926582 34.10215
-32.359756 -17.356672 2.3842282 85.740738
-25.545809 -14.454911 2.4918866 379.62143
-30.756668 -17.911409 2.5568216 480
-29.508116 -17.445536 2.3037369 44.5
-17.559839 -0.68094271 1.5761425 126.18638
-27.430918 -17.299526 2.2981102 40.111111
-18.255335 -9.6269684 1.9456551 77
-25.364729 -17.403864 2.2207234 46.722221
-22.185408 -5.6252441 1.6715494 103.12659
-21.210274 -11.505064 2.2140803 69.590965
-21.313025 -15.698729 2.0984809 42.371891
-21.20586 -17.452904 2.4275107 29
-21.252069 -16.382086 2.6928689 41
-19.320301 -17.528587 2.64276 39.967743
-18.652622 -17.660818 2.5570114 48.035713
-17.338181 -17.734142 2.4758813 46.375
-16.715891 -17.918476 2.5748932 57
-13.040155 -17.301994 2.0464315 85
-11.003071 -17.706932 2.4866705 75
-10.32325 -17.477993 2.5552549 55.5
-9.5092268 -17.541796 2.4882302 82.295456
-8.5831289 -17.311825 2.5110042 63.083332
-7.6481228 -17.350618 2.5779634 149.26315
